ply
format ascii 1.0
element vertex 1399
property float x
property float y
property float z
property uchar red
property uchar green
property uchar blue
property uchar alpha
end_header
157.363 72.8532 839 15 12 1 255
159.895 72.6795 837 16 11 2 255
163.191 72.8532 839 26 21 21 255
166.105 72.8532 839 37 19 5 255
169.019 72.8532 839 41 19 23 255
171.933 72.8532 839 40 22 3 255
174.848 72.8532 839 38 21 6 255
178.185 73.0268 841 31 19 27 255
181.968 73.3742 845 29 19 10 255
185.559 73.6347 848 38 19 6 255
188.505 73.6347 848 44 14 18 255
191.902 73.8083 850 59 10 45 255
194.854 73.8083 850 61 17 17 255
198.272 73.982 852 48 19 7 255
201.231 73.982 852 50 27 8 255
204.67 74.1557 854 60 41 6 255
741.122 247.041 2845 80 63 28 255
757.339 249.125 2869 80 66 44 255
767.304 249.125 2869 78 71 45 255
777.269 249.125 2869 75 62 33 255
780.649 247.041 2845 75 64 45 255
797.199 249.125 2869 78 68 69 255
807.164 249.125 2869 81 65 31 255
817.129 249.125 2869 81 63 47 255
827.094 249.125 2869 84 55 57 255
837.059 249.125 2869 84 62 56 255
839.939 247.041 2845 79 61 58 255
856.989 249.125 2869 78 62 41 255
866.954 249.125 2869 78 60 36 255
869.584 247.041 2845 79 65 39 255
886.884 249.125 2869 79 68 50 255
889.347 247.041 2845 79 65 10 255
899.229 247.041 2845 46 8 17 255
916.779 249.125 2869 35 46 29 255
918.992 247.041 2845 62 59 66 255
921.364 245.044 2822 68 51 38 255
931.166 245.044 2822 75 47 46 255
918.294 239.139 2754 78 47 49 255
927.859 239.139 2754 72 56 26 255
930.277 237.315 2733 72 56 49 255
924.983 233.582 2690 75 56 64 255
927.033 231.758 2669 74 59 62 255
929.287 230.021 2649 72 62 68 255
924.317 226.548 2609 74 65 62 255
919.426 223.162 2570 77 69 55 255
928.353 223.162 2570 79 72 32 255
923.42 219.862 2532 78 72 45 255
932.215 219.862 2532 76 76 51 255
927.63 216.736 2496 79 74 50 255
922.795 213.61 2460 82 79 59 255
924.904 212.134 2443 83 76 67 255
933.389 212.134 2443 85 82 66 255
935.32 210.658 2426 86 79 59 255
943.746 210.658 2426 88 81 51 255
945.5 209.182 2409 90 79 81 255
940.801 206.316 2376 90 79 80 255
935.872 203.451 2343 90 81 69 255
937.564 202.061 2327 90 80 37 255
939.551 200.759 2312 90 83 79 255
934.875 198.067 2281 93 83 77 255
936.598 196.764 2266 96 81 61 255
938.634 195.549 2252 94 84 69 255
940.151 194.246 2237 97 88 61 255
941.989 193.031 2223 98 87 76 255
949.71 193.031 2223 96 91 86 255
944.941 190.512 2194 97 90 89 255
952.562 190.512 2194 98 86 80 255
948.366 188.168 2167 98 89 91 255
949.717 186.952 2153 98 89 79 255
957.195 186.952 2153 100 89 83 255
958.848 185.823 2140 101 92 75 255
954.541 183.566 2114 101 90 81 255
950.054 181.308 2088 102 94 86 255
951.804 180.266 2076 102 89 84 255
953.01 179.137 2063 104 91 72 255
954.59 178.095 2051 106 93 85 255
956.087 177.053 2039 105 94 90 255
951.832 174.969 2015 103 93 112 255
953.121 173.927 2003 104 93 102 255
954.805 172.972 1992 108 101 95 255
950.62 170.975 1969 107 96 65 255
952.11 170.02 1958 109 93 95 255
948.137 168.109 1936 109 100 99 255
949.436 167.154 1925 113 97 115 255
-1068.57 185.219 2051 97 69 48 255
-1061.45 185.219 2051 98 76 42 255
-1060.49 186.303 2063 97 61 37 255
-1047.2 185.219 2051 95 67 52 255
-1046.16 186.303 2063 94 60 37 255
-1039 186.303 2063 91 60 62 255
-1031.83 186.303 2063 92 60 39 255
-1024.66 186.303 2063 97 62 29 255
-1017.5 186.303 2063 96 51 47 255
-1010.33 186.303 2063 95 58 60 255
-1003.17 186.303 2063 92 65 27 255
-996.003 186.303 2063 95 60 39 255
-995.068 187.477 2076 98 65 45 255
-981.672 186.303 2063 97 58 17 255
-974.506 186.303 2063 99 60 29 255
-973.436 187.477 2076 102 57 35 255
-966.226 187.477 2076 104 45 37 255
-959.015 187.477 2076 102 58 25 255
-951.804 187.477 2076 101 69 60 255
-950.054 188.56 2088 98 62 7 255
-942.802 188.56 2088 96 54 41 255
-935.549 188.56 2088 100 58 46 255
-928.297 188.56 2088 102 56 39 255
-926.779 189.734 2101 104 67 31 255
-919.482 189.734 2101 104 64 29 255
-917.828 190.908 2114 101 65 48 255
-910.486 190.908 2114 99 65 36 255
-897.589 189.734 2101 96 70 43 255
-895.8 190.908 2114 98 60 41 255
-888.458 190.908 2114 99 63 59 255
-881.115 190.908 2114 96 63 48 255
-873.773 190.908 2114 98 65 34 255
-871.758 192.082 2127 101 54 15 255
-864.37 192.082 2127 101 64 50 255
-856.982 192.082 2127 104 69 16 255
-854.787 193.256 2140 110 73 49 255
-842.207 192.082 2127 109 72 17 255
-839.921 193.256 2140 100 64 31 255
-832.489 193.256 2140 100 69 55 255
-825.056 193.256 2140 102 63 46 255
-827.938 195.695 2167 99 73 41 255
-820.412 195.695 2167 100 69 53 255
-812.885 195.695 2167 102 68 44 255
-805.358 195.695 2167 99 66 20 255
-797.832 195.695 2167 97 64 30 255
-790.305 195.695 2167 97 65 32 255
-782.778 195.695 2167 98 65 38 255
-775.251 195.695 2167 100 70 47 255
-767.725 195.695 2167 98 65 32 255
-760.198 195.695 2167 99 58 41 255
-752.671 195.695 2167 102 66 58 255
-749.959 196.959 2181 100 58 10 255
-742.383 196.959 2181 97 62 33 255
-734.808 196.959 2181 98 60 16 255
-727.233 196.959 2181 105 67 22 255
-719.657 196.959 2181 100 68 9 255
-712.082 196.959 2181 95 65 46 255
-704.507 196.959 2181 102 74 60 255
-696.931 196.959 2181 99 65 34 255
-689.356 196.959 2181 98 71 20 255
-685.844 198.133 2194 104 69 49 255
-674.205 196.959 2181 106 74 55 255
-666.63 196.959 2181 103 67 49 255
-659.055 196.959 2181 103 70 50 255
-655.362 198.133 2194 99 72 68 255
-647.742 198.133 2194 98 65 51 255
-644.206 199.397 2208 103 72 48 255
-636.537 199.397 2208 104 63 45 255
-624.88 198.133 2194 101 68 40 255
-621.199 199.397 2208 95 64 25 255
-613.53 199.397 2208 95 68 44 255
-609.976 200.752 2223 96 64 70 255
-602.255 200.752 2223 98 64 16 255
-598.278 202.016 2237 103 70 51 255
-590.508 202.016 2237 104 68 30 255
-579.091 200.752 2223 104 65 67 255
-571.37 200.752 2223 102 71 46 255
-563.649 200.752 2223 101 66 45 255
-555.928 200.752 2223 102 67 41 255
-548.207 200.752 2223 103 72 18 255
-543.889 202.016 2237 103 74 23 255
-536.119 202.016 2237 99 60 13 255
-528.35 202.016 2237 92 57 27 255
-517.322 200.752 2223 96 55 31 255
-509.601 200.752 2223 105 73 42 255
-501.879 200.752 2223 102 73 31 255
-497.27 202.016 2237 100 64 66 255
-489.5 202.016 2237 96 73 46 255
-481.73 202.016 2237 96 78 9 255
-473.961 202.016 2237 102 74 31 255
-466.191 202.016 2237 104 71 51 255
-458.421 202.016 2237 106 72 45 255
-450.651 202.016 2237 108 74 36 255
-442.881 202.016 2237 116 86 29 255
-440.752 204.635 2266 95 60 49 255
-444.535 210.144 2327 66 55 55 255
-442.454 213.033 2359 60 55 70 255
-437.39 214.569 2376 63 60 59 255
-429.137 214.569 2376 73 54 60 255
-420.885 214.569 2376 76 60 80 255
-409.68 213.033 2359 74 67 60 255
-401.486 213.033 2359 74 68 68 255
-393.292 213.033 2359 77 72 59 255
-385.099 213.033 2359 78 64 59 255
-376.905 213.033 2359 77 67 70 255
-368.712 213.033 2359 77 69 80 255
-360.518 213.033 2359 79 66 66 255
-352.324 213.033 2359 82 72 71 255
-344.131 213.033 2359 85 68 71 255
-338.358 214.569 2376 84 65 64 255
-330.106 214.569 2376 82 68 71 255
-321.853 214.569 2376 86 70 84 255
-313.6 214.569 2376 86 71 69 255
-305.348 214.569 2376 85 76 59 255
-297.095 214.569 2376 85 80 76 255
-290.787 216.014 2392 83 78 93 255
-280.59 214.569 2376 79 69 51 255
-272.337 214.569 2376 80 68 96 255
-264.084 214.569 2376 75 79 56 255
-255.832 214.569 2376 70 15 49 255
-247.579 214.569 2376 77 73 58 255
-240.938 216.014 2392 72 45 51 255
-232.63 216.014 2392 73 62 60 255
-224.322 216.014 2392 82 73 75 255
-216.014 216.014 2392 74 62 59 255
-207.705 216.014 2392 54 17 59 255
-237.159 256.922 2845 46 33 35 255
-225.44 254.845 2822 49 42 33 255
-213.881 252.768 2799 49 45 54 255
-204.159 252.768 2799 51 47 42 255
-194.437 252.768 2799 50 42 21 255
-186.233 254.845 2822 52 44 45 255
-174.993 252.768 2799 53 41 58 255
-165.272 252.768 2799 52 43 53 255
-155.55 252.768 2799 55 44 37 255
-145.828 252.768 2799 55 49 29 255
-136.106 252.768 2799 56 50 53 255
-126.384 252.768 2799 57 45 30 255
-117.621 254.845 2822 56 45 54 255
-107.819 254.845 2822 56 45 49 255
-97.2186 252.768 2799 50 44 41 255
-87.4967 252.768 2799 50 47 28 255
-77.1636 250.782 2777 53 44 42 255
-67.5181 250.782 2777 55 46 49 255
-57.8727 250.782 2777 59 43 45 255
-29.1656 252.768 2799 53 46 21 255
-19.2909 250.782 2777 34 42 46 255
-9.64545 250.782 2777 32 34 20 255
0 254.845 2822 44 39 40 255
9.72186 252.768 2799 45 31 30 255
19.6035 254.845 2822 52 45 50 255
29.4052 254.845 2822 61 51 22 255
38.8874 252.768 2799 64 46 37 255
48.6093 252.768 2799 63 49 19 255
58.3312 252.768 2799 62 49 47 255
68.053 252.768 2799 63 59 70 255
78.414 254.845 2822 63 46 24 255
88.2157 254.845 2822 63 51 52 255
98.0175 254.845 2822 65 50 62 255
107.819 254.845 2822 67 48 55 255
117.621 254.845 2822 65 51 52 255
102.995 205.99 2281 64 55 45 255
145.828 252.768 2799 67 56 24 255
154.327 250.782 2777 66 56 50 255
163.973 250.782 2777 66 52 53 255
172.18 248.705 2754 67 46 63 255
183.263 250.782 2777 67 53 59 255
194.437 252.768 2799 64 53 55 255
116.843 75.9479 841 21 14 8 255
120.761 76.5801 848 21 16 16 255
123.998 76.7607 850 24 12 5 255
126.95 76.7607 850 24 9 14 255
129.903 76.7607 850 20 10 4 255
132.542 76.5801 848 23 8 26 255
135.008 76.3091 845 24 4 5 255
137.617 76.1285 843 20 15 20 255
140.212 75.9479 841 18 15 1 255
142.792 75.7673 839 21 14 1 255
145.706 75.7673 839 23 7 1 255
148.62 75.7673 839 21 10 1 255
151.535 75.7673 839 21 8 5 255
154.449 75.7673 839 26 7 12 255
157.363 75.7673 839 23 7 3 255
159.513 75.4061 835 14 12 1 255
162.024 75.2254 833 19 12 1 255
164.917 75.2254 833 31 20 1 255
167.811 75.2254 833 40 19 23 255
170.704 75.2254 833 37 14 5 255
173.597 75.2254 833 42 17 19 255
176.49 75.2254 833 40 7 8 255
179.814 75.4061 835 31 15 8 255
184.028 75.9479 841 37 19 18 255
187.838 76.3091 845 46 25 21 255
190.773 76.3091 845 50 22 45 255
194.396 76.5801 848 51 29 13 255
197.341 76.5801 848 51 31 7 255
200.759 76.7607 850 46 20 18 255
204.19 76.9413 852 48 24 5 255
757.339 259.09 2869 82 65 61 255
767.304 259.09 2869 78 59 17 255
777.269 259.09 2869 75 64 31 255
787.234 259.09 2869 75 59 46 255
797.199 259.09 2869 77 60 66 255
807.164 259.09 2869 75 68 30 255
817.129 259.09 2869 74 62 47 255
827.094 259.09 2869 77 63 56 255
837.059 259.09 2869 79 61 54 255
847.024 259.09 2869 78 63 55 255
856.989 259.09 2869 77 63 40 255
859.702 256.922 2845 81 65 43 255
869.584 256.922 2845 82 54 45 255
886.884 259.09 2869 78 58 58 255
889.347 256.922 2845 78 72 14 255
899.229 256.922 2845 48 5 33 255
916.779 259.09 2869 37 39 43 255
918.992 256.922 2845 62 51 71 255
921.364 254.845 2822 68 44 49 255
923.577 252.768 2799 67 53 39 255
918.294 248.705 2754 69 47 50 255
920.784 246.808 2733 70 57 26 255
930.277 246.808 2733 69 56 47 255
924.983 242.925 2690 64 56 49 255
927.033 241.028 2669 64 61 63 255
929.287 239.222 2649 71 64 56 255
924.317 235.61 2609 74 62 44 255
926.223 233.804 2589 77 67 52 255
928.353 232.088 2570 79 64 55 255
923.42 228.656 2532 80 70 20 255
925.588 227.031 2514 80 71 49 255
920.94 223.78 2478 80 70 67 255
916.418 220.619 2443 78 77 52 255
924.904 220.619 2443 81 77 62 255
933.389 220.619 2443 85 76 70 255
935.32 219.084 2426 85 79 77 255
943.746 219.084 2426 87 79 69 255
938.828 216.014 2392 88 78 77 255
940.801 214.569 2376 88 80 72 255
935.872 211.589 2343 88 81 64 255
937.564 210.144 2327 88 85 30 255
939.551 208.789 2312 88 85 77 255
934.875 205.99 2281 89 84 70 255
936.598 204.635 2266 91 86 48 255
944.469 204.635 2266 90 85 59 255
940.151 202.016 2237 91 86 25 255
941.989 200.752 2223 93 87 70 255
943.302 199.397 2208 95 85 96 255
944.941 198.133 2194 99 90 82 255
946.917 196.959 2181 103 85 76 255
948.366 195.695 2167 102 85 86 255
949.717 194.43 2153 95 90 78 255
957.195 194.43 2153 97 89 94 255
958.848 193.256 2140 100 91 73 255
948.672 189.734 2101 99 89 90 255
955.969 189.734 2101 98 91 105 255
957.306 188.56 2088 100 91 92 255
964.559 188.56 2088 103 90 89 255
954.59 185.219 2051 103 94 101 255
956.087 184.135 2039 103 92 66 255
951.832 181.968 2015 104 92 111 255
953.121 180.884 2003 103 93 95 255
954.805 179.891 1992 99 93 62 255
945.309 176.82 1958 100 96 81 255
946.761 175.827 1947 107 96 86 255
948.137 174.834 1936 111 98 93 255
944.504 172.937 1915 110 98 109 255
-1074.82 193.468 2063 94 76 49 255
-1067.66 193.468 2063 93 55 47 255
-1060.49 193.468 2063 97 60 46 255
-1053.33 193.468 2063 96 63 42 255
-1046.16 193.468 2063 93 57 30 255
-1039 193.468 2063 93 54 51 255
-1031.83 193.468 2063 97 54 22 255
-1024.66 193.468 2063 98 63 20 255
-1017.5 193.468 2063 94 69 26 255
-1010.33 193.468 2063 92 59 49 255
-1003.17 193.468 2063 93 57 23 255
-996.003 193.468 2063 95 58 36 255
-995.068 194.687 2076 94 56 52 255
-987.858 194.687 2076 91 55 19 255
-980.647 194.687 2076 93 61 35 255
-973.436 194.687 2076 96 58 17 255
-966.226 194.687 2076 100 67 27 255
-959.015 194.687 2076 106 60 65 255
-951.804 194.687 2076 103 63 40 255
-950.054 195.813 2088 94 56 6 255
-942.802 195.813 2088 93 58 37 255
-935.549 195.813 2088 91 63 45 255
-928.297 195.813 2088 92 60 62 255
-921.045 195.813 2088 98 59 44 255
-919.482 197.032 2101 100 65 32 255
-917.828 198.251 2114 103 63 37 255
-910.486 198.251 2114 101 63 50 255
-903.143 198.251 2114 94 60 30 255
-895.8 198.251 2114 96 64 32 255
-882.994 197.032 2101 104 63 52 255
-881.115 198.251 2114 103 59 40 255
-873.773 198.251 2114 104 66 37 255
-866.43 198.251 2114 103 63 17 255
-864.37 199.47 2127 99 67 34 255
-856.982 199.47 2127 101 70 32 255
-849.595 199.47 2127 104 76 24 255
-842.207 199.47 2127 101 74 6 255
-839.921 200.689 2140 95 68 27 255
-832.489 200.689 2140 96 65 37 255
-830.068 201.908 2153 101 62 20 255
-827.938 203.221 2167 100 67 47 255
-820.412 203.221 2167 105 55 54 255
-812.885 203.221 2167 105 60 57 255
-805.358 203.221 2167 95 69 15 255
-797.832 203.221 2167 93 63 14 255
-790.305 203.221 2167 93 63 21 255
-782.778 203.221 2167 94 63 30 255
-775.251 203.221 2167 98 71 57 255
-767.725 203.221 2167 95 65 15 255
-760.198 203.221 2167 95 63 27 255
-752.671 203.221 2167 108 74 51 255
-749.959 204.534 2181 111 68 31 255
-742.383 204.534 2181 106 64 54 255
-734.808 204.534 2181 104 58 38 255
-727.233 204.534 2181 104 65 17 255
-719.657 204.534 2181 103 60 7 255
-712.082 204.534 2181 103 61 63 255
-704.507 204.534 2181 108 70 39 255
-696.931 204.534 2181 107 65 25 255
-693.465 205.753 2194 102 70 15 255
-681.781 204.534 2181 108 69 47 255
-674.205 204.534 2181 109 73 49 255
-666.63 204.534 2181 104 59 75 255
-659.055 204.534 2181 103 69 49 255
-655.362 205.753 2194 102 57 55 255
-647.742 205.753 2194 102 66 53 255
-640.121 205.753 2194 103 64 63 255
-632.501 205.753 2194 105 60 43 255
-624.88 205.753 2194 103 64 33 255
-621.199 207.066 2208 99 64 21 255
-613.53 207.066 2208 100 67 30 255
-605.86 207.066 2208 105 72 61 255
-598.191 207.066 2208 106 62 13 255
-590.522 207.066 2208 103 64 34 255
-586.813 208.473 2223 105 71 47 255
-579.091 208.473 2223 108 75 47 255
-567.515 207.066 2208 104 65 47 255
-563.649 208.473 2223 100 64 39 255
-555.928 208.473 2223 99 64 45 255
-548.207 208.473 2223 100 60 43 255
-543.889 209.786 2237 103 73 60 255
-536.119 209.786 2237 101 63 40 255
-528.35 209.786 2237 98 67 25 255
-520.58 209.786 2237 105 69 13 255
-512.81 209.786 2237 106 72 21 255
-505.04 209.786 2237 100 69 34 255
-497.27 209.786 2237 105 71 55 255
-489.5 209.786 2237 103 74 43 255
-481.73 209.786 2237 102 60 18 255
-473.961 209.786 2237 103 67 34 255
-466.191 209.786 2237 103 68 56 255
-458.421 209.786 2237 109 75 78 255
-453.673 211.193 2252 105 77 43 255
-445.851 211.193 2252 106 80 41 255
-438.029 211.193 2252 96 76 38 255
-432.882 212.505 2266 73 68 43 255
-445.643 222.821 2376 69 60 54 255
-437.39 222.821 2376 73 60 47 255
-429.137 222.821 2376 75 63 38 255
-420.885 222.821 2376 75 68 68 255
-412.632 222.821 2376 77 64 61 255
-401.486 221.227 2359 78 63 58 255
-393.292 221.227 2359 78 65 57 255
-385.099 221.227 2359 80 65 62 255
-376.905 221.227 2359 81 72 71 255
-368.712 221.227 2359 79 71 62 255
-360.518 221.227 2359 80 66 39 255
-352.324 221.227 2359 80 65 68 255
-344.131 221.227 2359 80 67 83 255
-338.358 222.821 2376 82 65 42 255
-330.106 222.821 2376 82 67 63 255
-321.853 222.821 2376 84 74 79 255
-313.6 222.821 2376 85 73 69 255
-305.348 222.821 2376 84 77 61 255
-299.096 224.322 2392 85 80 73 255
-290.787 224.322 2392 85 77 76 255
-282.479 224.322 2392 80 71 51 255
-272.337 222.821 2376 86 72 79 255
-264.084 222.821 2376 75 64 54 255
-255.832 222.821 2376 65 56 43 255
-247.579 222.821 2376 86 82 50 255
-239.327 222.821 2376 68 64 20 255
-232.63 224.322 2392 67 71 50 255
-224.322 224.322 2392 89 73 55 255
-214.569 222.821 2376 77 62 58 255
-237.159 266.804 2845 53 38 42 255
-227.278 266.804 2845 53 34 17 255
-215.638 264.647 2822 53 39 48 255
-205.837 264.647 2822 54 42 45 255
-194.437 262.49 2799 57 47 49 255
-184.715 262.49 2799 59 46 47 255
-174.993 262.49 2799 51 50 58 255
-156.828 264.647 2822 56 46 45 255
-147.026 264.647 2822 59 46 41 255
-137.224 264.647 2822 62 48 53 255
-126.384 262.49 2799 55 52 48 255
-116.662 262.49 2799 54 47 36 255
-107.819 264.647 2822 62 49 48 255
-98.8163 266.804 2845 64 52 43 255
-88.9347 266.804 2845 62 49 26 255
-77.7749 262.49 2799 62 47 36 255
-68.053 262.49 2799 65 55 42 255
-9.72186 262.49 2799 63 60 18 255
0 262.49 2799 63 58 24 255
9.72186 262.49 2799 56 41 46 255
18.8324 254.238 2711 57 44 50 255
28.9363 260.427 2777 65 51 39 255
38.5818 260.427 2777 68 55 40 255
48.6093 262.49 2799 71 54 43 255
58.3312 262.49 2799 71 54 52 255
68.053 262.49 2799 69 56 61 255
77.7749 262.49 2799 68 60 56 255
88.2157 264.647 2822 71 57 64 255
97.2186 262.49 2799 75 59 66 255
107.819 264.647 2822 75 52 62 255
117.621 264.647 2822 72 59 73 255
103.717 215.413 2297 71 61 45 255
145.828 262.49 2799 77 60 30 255
154.327 260.427 2777 77 60 71 255
163.973 260.427 2777 77 80 59 255
174.993 262.49 2799 77 69 61 255
184.715 262.49 2799 77 63 58 255
194.437 262.49 2799 75 65 52 255
105.155 81.1197 865 35 16 7 255
116.843 78.869 841 11 9 4 255
120.334 79.2441 845 15 12 12 255
123.269 79.2441 845 20 10 5 255
126.652 79.5254 848 22 9 13 255
129.139 79.2441 845 20 3 2 255
131.448 78.869 841 20 7 2 255
134.369 78.869 841 19 15 1 255
136.964 78.6814 839 15 12 1 255
139.878 78.6814 839 17 12 1 255
142.111 78.3063 835 20 9 1 255
145.012 78.3063 835 19 8 1 255
147.912 78.3063 835 19 13 1 255
150.812 78.3063 835 20 9 6 255
153.344 78.1187 833 21 9 11 255
156.237 78.1187 833 18 11 3 255
159.131 78.1187 833 12 12 3 255
161.635 77.9312 831 7 8 1 255
164.125 77.7436 829 17 18 2 255
166.602 77.5561 827 38 26 22 255
169.064 77.3685 825 43 18 6 255
172.347 77.5561 827 39 12 17 255
176.067 77.9312 831 32 17 3 255
178.953 77.9312 831 17 10 4 255
182.277 78.1187 833 21 13 27 255
186.949 78.869 841 39 16 11 255
190.773 79.2441 845 50 19 19 255
193.708 79.2441 845 54 31 6 255
196.643 79.2441 845 53 40 6 255
199.578 79.2441 845 53 33 16 255
203.232 79.5254 848 51 28 1 255
763.675 271.306 2893 78 62 58 255
773.723 271.306 2893 77 61 11 255
777.269 269.055 2869 74 64 45 255
780.649 266.804 2845 72 59 45 255
797.199 269.055 2869 77 62 48 255
800.412 266.804 2845 79 68 43 255
817.129 269.055 2869 77 63 40 255
827.094 269.055 2869 79 63 27 255
844.062 271.306 2893 79 60 41 255
847.024 269.055 2869 73 58 39 255
856.989 269.055 2869 71 62 36 255
866.954 269.055 2869 77 59 24 255
869.584 266.804 2845 79 60 42 255
886.884 269.055 2869 78 59 42 255
889.347 266.804 2845 78 65 38 255
899.229 266.804 2845 42 7 16 255
916.779 269.055 2869 31 45 39 255
911.562 264.647 2822 60 56 71 255
921.364 264.647 2822 64 49 50 255
916.317 260.427 2777 67 49 34 255
918.294 258.27 2754 70 54 66 255
927.859 258.27 2754 69 50 40 255
930.277 256.301 2733 72 49 44 255
932.204 254.238 2711 71 50 34 255
934.327 252.268 2690 69 58 68 255
929.287 248.423 2649 76 59 46 255
931.402 246.548 2629 78 62 37 255
926.223 242.796 2589 77 66 45 255
928.353 241.015 2570 77 64 49 255
923.42 237.451 2532 77 63 9 255
932.215 237.451 2532 80 67 44 255
927.63 234.075 2496 83 74 50 255
922.795 230.699 2460 81 74 46 255
924.904 229.105 2443 80 77 50 255
933.389 229.105 2443 81 75 61 255
935.32 227.51 2426 82 76 81 255
943.746 227.51 2426 83 74 78 255
945.5 225.916 2409 84 82 77 255
940.801 222.821 2376 85 83 73 255
942.263 221.227 2359 87 81 78 255
944.01 219.727 2343 88 86 51 255
945.646 218.226 2327 89 83 80 255
941.433 215.413 2297 93 82 69 255
942.798 213.912 2281 93 82 64 255
944.469 212.505 2266 91 84 79 255
946.456 211.193 2252 95 83 38 255
941.989 208.473 2223 98 86 69 255
943.302 207.066 2208 101 87 90 255
944.941 205.753 2194 100 90 62 255
946.917 204.534 2181 95 89 72 255
948.366 203.221 2167 95 88 83 255
949.717 201.908 2153 98 86 69 255
957.195 201.908 2153 100 90 80 255
958.848 200.689 2140 104 85 50 255
948.672 197.032 2101 103 92 88 255
955.969 197.032 2101 97 99 107 255
957.306 195.813 2088 102 98 89 255
959.015 194.687 2076 105 86 90 255
954.59 192.343 2051 97 91 105 255
950.46 190.092 2027 98 91 64 255
946.164 187.841 2003 102 90 109 255
953.121 187.841 2003 103 94 85 255
949.054 185.684 1980 105 96 54 255
945.309 183.621 1958 105 99 94 255
946.761 182.59 1947 105 97 87 255
948.137 181.558 1936 107 95 92 255
944.504 179.589 1915 105 96 95 255
-1074.82 200.634 2063 103 70 51 255
-1067.66 200.634 2063 104 58 40 255
-1060.49 200.634 2063 98 60 64 255
-1047.2 199.467 2051 94 65 36 255
-1046.16 200.634 2063 92 58 34 255
-1039 200.634 2063 94 54 28 255
-1031.83 200.634 2063 103 60 18 255
-1024.66 200.634 2063 102 60 20 255
-1017.5 200.634 2063 90 64 20 255
-1010.33 200.634 2063 88 56 56 255
-1003.17 200.634 2063 91 56 13 255
-996.003 200.634 2063 94 60 24 255
-995.068 201.898 2076 94 62 34 255
-987.858 201.898 2076 88 58 32 255
-980.647 201.898 2076 88 59 40 255
-973.436 201.898 2076 92 52 5 255
-966.226 201.898 2076 92 52 23 255
-964.559 203.065 2088 92 54 48 255
-957.306 203.065 2088 87 51 39 255
-955.969 204.329 2101 88 50 12 255
-942.802 203.065 2088 93 58 28 255
-935.549 203.065 2088 93 59 33 255
-928.297 203.065 2088 96 56 40 255
-921.045 203.065 2088 98 62 51 255
-919.482 204.329 2101 98 56 34 255
-917.828 205.594 2114 98 64 41 255
-910.486 205.594 2114 96 58 58 255
-903.143 205.594 2114 95 59 28 255
-895.8 205.594 2114 98 54 11 255
-888.458 205.594 2114 100 57 25 255
-881.115 205.594 2114 101 59 34 255
-873.773 205.594 2114 101 60 43 255
-866.43 205.594 2114 96 67 26 255
-864.37 206.858 2127 95 68 20 255
-856.982 206.858 2127 101 69 42 255
-849.595 206.858 2127 103 69 11 255
-842.207 206.858 2127 99 67 30 255
-834.819 206.858 2127 98 65 42 255
-832.489 208.122 2140 100 63 26 255
-825.056 208.122 2140 101 71 14 255
-827.938 210.748 2167 97 68 53 255
-820.412 210.748 2167 96 68 42 255
-812.885 210.748 2167 99 64 55 255
-805.358 210.748 2167 97 67 21 255
-797.832 210.748 2167 97 64 33 255
-790.305 210.748 2167 98 59 19 255
-782.778 210.748 2167 97 54 12 255
-775.251 210.748 2167 101 60 70 255
-767.725 210.748 2167 101 64 2 255
-760.198 210.748 2167 96 58 12 255
-752.671 210.748 2167 97 65 14 255
-749.959 212.11 2181 101 61 38 255
-742.383 212.11 2181 109 65 58 255
-734.808 212.11 2181 110 60 43 255
-727.233 212.11 2181 104 72 23 255
-715.038 210.748 2167 102 65 7 255
-707.511 210.748 2167 103 69 51 255
-704.507 212.11 2181 104 69 18 255
-701.085 213.374 2194 104 72 14 255
-693.465 213.374 2194 104 73 15 255
-681.781 212.11 2181 103 67 50 255
-674.205 212.11 2181 102 71 55 255
-666.63 212.11 2181 101 64 75 255
-659.055 212.11 2181 101 64 39 255
-651.479 212.11 2181 103 72 32 255
-643.904 212.11 2181 112 68 46 255
-640.121 213.374 2194 111 72 63 255
-632.501 213.374 2194 102 71 48 255
-624.88 213.374 2194 100 64 39 255
-625.419 216.194 2223 104 60 49 255
-613.53 214.735 2208 103 66 12 255
-605.86 214.735 2208 99 73 29 255
-598.191 214.735 2208 98 68 15 255
-590.522 214.735 2208 102 58 19 255
-582.853 214.735 2208 105 62 35 255
-575.184 214.735 2208 101 63 15 255
-567.515 214.735 2208 97 65 44 255
-563.649 216.194 2223 101 64 41 255
-555.928 216.194 2223 99 64 41 255
-548.207 216.194 2223 97 69 51 255
-543.889 217.556 2237 103 68 57 255
-536.119 217.556 2237 103 64 53 255
-528.35 217.556 2237 100 69 38 255
-520.58 217.556 2237 98 67 23 255
-512.81 217.556 2237 97 63 30 255
-505.04 217.556 2237 98 65 44 255
-497.27 217.556 2237 100 69 21 255
-489.5 217.556 2237 101 71 34 255
-481.73 217.556 2237 101 67 34 255
-473.961 217.556 2237 103 69 26 255
-466.191 217.556 2237 105 63 50 255
-458.421 217.556 2237 106 61 73 255
-453.673 219.014 2252 106 76 34 255
-445.851 219.014 2252 109 68 38 255
-438.029 219.014 2252 91 70 25 255
-432.882 220.376 2266 63 53 23 255
-448.644 232.63 2392 63 55 50 255
-440.335 232.63 2392 70 58 44 255
-429.137 231.074 2376 67 61 36 255
-420.885 231.074 2376 68 61 59 255
-412.632 231.074 2376 76 67 59 255
-401.486 229.421 2359 78 69 64 255
-393.292 229.421 2359 77 67 55 255
-385.099 229.421 2359 76 65 61 255
-376.905 229.421 2359 77 63 68 255
-368.712 229.421 2359 78 64 56 255
-363.116 231.074 2376 82 59 33 255
-352.324 229.421 2359 82 66 70 255
-344.131 229.421 2359 80 70 87 255
-338.358 231.074 2376 81 70 39 255
-330.106 231.074 2376 79 72 69 255
-321.853 231.074 2376 79 68 71 255
-313.6 231.074 2376 81 74 70 255
-305.348 231.074 2376 85 74 86 255
-299.096 232.63 2392 85 72 73 255
-290.787 232.63 2392 81 74 66 255
-282.479 232.63 2392 75 63 55 255
-274.171 232.63 2392 76 77 86 255
-264.084 231.074 2376 73 64 56 255
-255.832 231.074 2376 71 35 45 255
-247.579 231.074 2376 80 72 74 255
-239.327 231.074 2376 71 60 23 255
-231.074 231.074 2376 70 63 47 255
-222.821 231.074 2376 80 71 49 255
-214.569 231.074 2376 75 64 58 255
-204.84 229.421 2359 68 55 50 255
-195.163 237.59 2443 69 68 22 255
-186.678 237.59 2443 73 65 70 255
-174.472 232.63 2392 72 58 47 255
-161.222 237.59 2443 74 64 53 255
-152.736 237.59 2443 74 62 71 255
-144.251 237.59 2443 74 74 64 255
-147.026 274.449 2822 76 69 42 255
-137.224 274.449 2822 80 62 53 255
-126.384 272.212 2799 79 68 47 255
-116.662 272.212 2799 75 66 34 255
-107.819 274.449 2822 80 63 62 255
-98.8163 276.686 2845 82 62 49 255
-88.9347 276.686 2845 78 63 43 255
-79.0531 276.686 2845 77 66 48 255
-9.56556 267.836 2754 78 74 43 255
0 267.836 2754 85 68 34 255
9.49262 265.793 2733 81 65 42 255
18.8324 263.654 2711 76 64 47 255
48.6093 272.212 2799 78 67 55 255
58.3312 272.212 2799 79 69 56 255
68.053 272.212 2799 80 74 64 255
67.8828 237.59 2443 81 76 82 255
75.3053 234.283 2409 86 68 67 255
83.6726 234.283 2409 86 67 66 255
116.662 272.212 2799 86 73 79 255
104.395 224.85 2312 87 69 34 255
111.695 223.391 2297 86 77 36 255
145.828 272.212 2799 87 75 50 255
155.55 272.212 2799 84 80 71 255
166.63 274.449 2822 87 76 52 255
176.431 274.449 2822 88 77 50 255
102.151 84.1241 865 28 15 9 255
104.79 83.8324 862 25 16 6 255
107.284 83.4434 858 23 12 8 255
110.264 83.4434 858 23 18 4 255
113.922 81.7901 841 22 10 1 255
116.843 81.7901 841 24 11 1 255
119.764 81.7901 841 24 12 2 255
122.685 81.7901 841 25 8 1 255
125.606 81.7901 841 25 5 2 255
128.527 81.7901 841 15 4 2 255
131.136 81.5955 839 13 9 1 255
133.73 81.401 837 17 9 1 255
135.984 81.012 833 18 7 1 255
138.878 81.012 833 18 9 1 255
141.771 81.012 833 20 9 8 255
144.664 81.012 833 23 12 3 255
147.203 80.8175 831 23 15 1 255
149.728 80.623 829 22 11 7 255
152.24 80.4285 827 27 7 2 255
155.112 80.4285 827 24 8 1 255
158.749 80.8175 831 15 14 4 255
161.246 80.623 829 14 9 1 255
164.125 80.623 829 20 16 2 255
166.199 80.234 825 35 17 8 255
168.655 80.0395 823 45 30 1 255
171.93 80.234 825 44 9 1 255
175.219 80.4285 827 35 17 1 255
178.522 80.623 829 27 12 16 255
181.402 80.623 829 27 11 18 255
184.726 80.8175 831 33 18 5 255
188.064 81.012 833 42 17 9 255
191.415 81.2065 835 50 33 6 255
195.246 81.5955 839 54 30 7 255
198.161 81.5955 839 46 30 1 255
201.554 81.7901 841 41 22 1 255
204.475 81.7901 841 49 18 10 255
780.142 283.688 2917 78 67 11 255
777.269 279.02 2869 77 61 41 255
774.338 274.449 2822 76 56 23 255
790.531 276.686 2845 76 56 42 255
800.412 276.686 2845 77 61 42 255
817.129 279.02 2869 76 65 38 255
834.013 281.354 2893 76 62 21 255
844.062 281.354 2893 76 56 38 255
847.024 279.02 2869 76 64 28 255
864.158 281.354 2893 78 63 42 255
866.954 279.02 2869 79 58 11 255
869.584 276.686 2845 79 58 38 255
886.884 279.02 2869 82 54 40 255
896.849 279.02 2869 83 58 42 255
906.814 279.02 2869 49 1 22 255
916.779 279.02 2869 37 46 24 255
918.992 276.686 2845 60 54 58 255
921.364 274.449 2822 64 53 37 255
923.577 272.212 2799 65 56 19 255
918.294 267.836 2754 68 53 58 255
920.784 265.793 2733 69 52 49 255
930.277 265.793 2733 70 56 46 255
932.204 263.654 2711 66 59 22 255
927.033 259.569 2669 66 60 61 255
929.287 257.624 2649 70 58 42 255
924.317 253.734 2609 71 58 43 255
926.223 251.789 2589 73 67 38 255
928.353 249.941 2570 75 72 36 255
930.35 248.093 2551 77 67 14 255
932.215 246.245 2532 78 64 38 255
927.63 242.744 2496 81 64 36 255
922.795 239.243 2460 83 68 47 255
924.904 237.59 2443 82 76 39 255
933.389 237.59 2443 86 73 56 255
935.32 235.937 2426 87 72 65 255
937.133 234.283 2409 85 73 80 255
938.828 232.63 2392 90 74 88 255
940.801 231.074 2376 91 73 71 255
949.054 231.074 2376 90 79 56 255
950.457 229.421 2359 91 81 51 255
952.148 227.865 2343 89 82 80 255
941.433 223.391 2297 91 83 69 255
942.798 221.835 2281 90 79 66 255
944.469 220.376 2266 89 78 91 255
946.456 219.014 2252 93 80 72 255
954.277 219.014 2252 94 83 73 255
955.691 217.556 2237 94 86 73 255
950.971 214.735 2208 95 89 56 255
952.562 213.374 2194 97 91 76 255
948.366 210.748 2167 98 87 76 255
949.717 209.386 2153 97 90 48 255
951.415 208.122 2140 99 87 64 255
953.024 206.858 2127 101 85 49 255
948.672 204.329 2101 101 92 76 255
950.054 203.065 2088 101 91 73 255
951.804 201.898 2076 104 92 80 255
953.01 200.634 2063 104 89 79 255
954.59 199.467 2051 102 89 87 255
950.46 197.133 2027 103 91 75 255
951.832 195.965 2015 104 87 108 255
953.121 194.798 2003 102 90 89 255
943.781 191.492 1969 98 95 68 255
945.309 190.422 1958 98 92 100 255
946.761 189.352 1947 103 90 91 255
948.137 188.282 1936 108 93 94 255
944.504 186.24 1915 109 93 93 255
-1074.82 207.799 2063 97 63 52 255
-1067.66 207.799 2063 96 58 40 255
-1054.32 206.59 2051 93 62 55 255
-1047.2 206.59 2051 93 69 17 255
-1040.08 206.59 2051 93 65 41 255
-1032.95 206.59 2051 92 63 23 255
-1031.83 207.799 2063 94 54 37 255
-1024.66 207.799 2063 94 51 37 255
-1017.5 207.799 2063 92 58 25 255
-1010.33 207.799 2063 92 65 39 255
-1003.17 207.799 2063 94 58 15 255
-1002.28 209.109 2076 98 60 40 255
-995.068 209.109 2076 100 60 31 255
-987.858 209.109 2076 95 55 37 255
-986.315 210.317 2088 93 64 51 255
-973.436 209.109 2076 93 61 25 255
-966.226 209.109 2076 85 54 31 255
-964.559 210.317 2088 82 52 18 255
-957.306 210.317 2088 91 59 37 255
-955.969 211.627 2101 103 60 44 255
-942.802 210.317 2088 94 59 32 255
-941.374 211.627 2101 85 56 28 255
-934.077 211.627 2101 95 59 32 255
-921.045 210.317 2088 98 65 48 255
-919.482 211.627 2101 95 63 39 255
-912.184 211.627 2101 93 63 53 255
-910.486 212.936 2114 92 58 29 255
-903.143 212.936 2114 93 59 33 255
-895.8 212.936 2114 97 53 40 255
-888.458 212.936 2114 98 61 25 255
-886.534 214.246 2127 97 58 37 255
-879.146 214.246 2127 98 63 56 255
-871.758 214.246 2127 97 64 32 255
-864.37 214.246 2127 98 63 17 255
-856.982 214.246 2127 101 68 33 255
-849.595 214.246 2127 99 65 21 255
-842.207 214.246 2127 91 63 44 255
-834.819 214.246 2127 92 67 49 255
-832.489 215.555 2140 99 71 31 255
-830.068 216.865 2153 102 66 35 255
-827.938 218.275 2167 102 65 49 255
-820.412 218.275 2167 100 68 32 255
-812.885 218.275 2167 97 60 47 255
-805.358 218.275 2167 96 64 28 255
-802.986 219.685 2181 98 65 52 255
-790.305 218.275 2167 97 71 19 255
-782.778 218.275 2167 93 56 23 255
-775.251 218.275 2167 95 65 69 255
-767.725 218.275 2167 98 60 17 255
-765.109 219.685 2181 96 64 3 255
-757.534 219.685 2181 89 56 12 255
-749.959 219.685 2181 90 47 39 255
-742.383 219.685 2181 103 60 43 255
-734.808 219.685 2181 106 61 49 255
-722.564 218.275 2167 102 63 51 255
-715.038 218.275 2167 94 70 24 255
-707.511 218.275 2167 99 74 43 255
-704.507 219.685 2181 102 65 14 255
-701.085 220.994 2194 105 69 11 255
-693.465 220.994 2194 109 69 13 255
-681.781 219.685 2181 99 74 43 255
-674.205 219.685 2181 96 67 27 255
-666.63 219.685 2181 98 70 51 255
-659.055 219.685 2181 100 69 31 255
-651.479 219.685 2181 104 71 23 255
-643.904 219.685 2181 106 76 39 255
-640.121 220.994 2194 104 75 41 255
-628.753 219.685 2181 100 68 68 255
-621.178 219.685 2181 98 63 50 255
-621.199 222.404 2208 100 62 53 255
-613.53 222.404 2208 100 60 17 255
-605.86 222.404 2208 98 68 43 255
-598.191 222.404 2208 92 72 21 255
-590.522 222.404 2208 94 60 12 255
-582.853 222.404 2208 99 65 41 255
-579.091 223.915 2223 97 67 12 255
-571.37 223.915 2223 98 61 57 255
-567.199 225.326 2237 100 60 48 255
-559.429 225.326 2237 99 71 38 255
-551.659 225.326 2237 98 65 68 255
-543.889 225.326 2237 100 66 38 255
-536.119 225.326 2237 105 67 56 255
-528.35 225.326 2237 103 57 44 255
-520.58 225.326 2237 90 57 46 255
-512.81 225.326 2237 91 62 40 255
-505.04 225.326 2237 98 63 60 255
-497.27 225.326 2237 97 69 19 255
-489.5 225.326 2237 98 66 33 255
-481.73 225.326 2237 98 65 38 255
-473.961 225.326 2237 99 64 31 255
-466.191 225.326 2237 104 68 55 255
-458.421 225.326 2237 105 70 37 255
-453.673 226.836 2252 102 76 26 255
-445.851 226.836 2252 109 69 52 255
-438.029 226.836 2252 94 63 34 255
-432.882 228.247 2266 66 53 31 255
-445.643 239.327 2376 65 54 46 255
-437.39 239.327 2376 70 55 52 255
-429.137 239.327 2376 72 57 50 255
-420.885 239.327 2376 71 60 57 255
-412.632 239.327 2376 73 65 57 255
-401.486 237.614 2359 74 64 71 255
-393.292 237.614 2359 75 68 42 255
-385.099 237.614 2359 72 72 58 255
-376.905 237.614 2359 73 69 51 255
-368.712 237.614 2359 77 65 57 255
-360.518 237.614 2359 74 69 51 255
-352.324 237.614 2359 74 73 71 255
-346.611 239.327 2376 76 68 90 255
-340.637 240.938 2392 78 67 33 255
-330.106 239.327 2376 79 65 68 255
-324.02 240.938 2392 79 67 69 255
-313.6 239.327 2376 78 72 68 255
-305.348 239.327 2376 81 74 85 255
-299.096 240.938 2392 84 73 64 255
-290.787 240.938 2392 82 71 44 255
-282.479 240.938 2392 68 58 50 255
-272.337 239.327 2376 73 67 90 255
-264.084 239.327 2376 76 61 63 255
-255.832 239.327 2376 68 43 56 255
-247.579 239.327 2376 81 70 79 255
-240.938 240.938 2392 75 53 30 255
-231.074 239.327 2376 78 62 45 255
-222.821 239.327 2376 87 64 52 255
-214.569 239.327 2376 76 67 74 255
-206.316 239.327 2376 69 65 54 255
-203.648 246.075 2443 68 62 51 255
-195.163 246.075 2443 74 64 49 255
-186.678 246.075 2443 75 64 74 255
-178.192 246.075 2443 74 63 47 255
-169.707 246.075 2443 74 67 38 255
-161.222 246.075 2443 74 64 54 255
-152.736 246.075 2443 75 68 81 255
-135.766 246.075 2443 79 69 51 255
-127.28 246.075 2443 79 70 62 255
-117.968 244.363 2426 76 68 56 255
-110.31 246.075 2443 75 72 52 255
-101.824 246.075 2443 72 74 48 255
-93.9884 247.788 2460 75 78 61 255
-85.444 247.788 2460 78 77 47 255
-76.3682 246.075 2443 80 72 46 255
-67.8828 246.075 2443 77 71 55 255
-59.3975 246.075 2443 74 73 70 255
-51.2664 247.788 2460 77 72 48 255
-42.4268 246.075 2443 83 70 45 255
-34.1776 247.788 2460 82 72 82 255
-17.0888 247.788 2460 81 69 58 255
-8.60692 249.601 2478 79 77 49 255
0 247.788 2460 78 76 69 255
9.64545 279.718 2777 71 68 46 255
34.4277 249.601 2478 78 77 84 255
42.722 247.788 2460 78 78 67 255
50.9121 246.075 2443 79 79 53 255
59.3975 246.075 2443 81 76 62 255
67.8828 246.075 2443 82 76 80 255
75.3053 242.651 2409 81 73 61 255
83.6726 242.651 2409 79 73 72 255
92.6894 244.363 2426 78 75 78 255
101.116 244.363 2426 80 82 76 255
109.542 244.363 2426 84 76 43 255
117.968 244.363 2426 85 77 56 255
125.509 242.651 2409 84 77 73 255
132.931 240.938 2392 83 80 65 255
141.24 240.938 2392 82 79 48 255
96.1419 87.1286 865 23 13 29 255
98.8024 86.8264 862 22 12 8 255
101.56 86.6249 860 21 7 8 255
104.304 86.4235 858 19 8 5 255
107.284 86.4235 858 19 12 3 255
110.007 86.222 856 17 14 1 255
112.453 85.8191 852 17 15 23 255
114.193 84.9126 843 15 12 1 255
116.843 84.7111 841 16 10 1 255
119.479 84.5097 839 22 10 16 255
122.102 84.3082 837 24 13 1 255
125.009 84.3082 837 18 12 1 255
127.916 84.3082 837 17 10 1 255
130.51 84.1068 835 19 11 5 255
133.091 83.9053 833 20 15 2 255
135.658 83.7039 831 22 10 9 255
138.544 83.7039 831 20 14 1 255
141.431 83.7039 831 15 13 8 255
144.317 83.7039 831 13 8 3 255
146.495 83.3009 827 13 14 9 255
149.006 83.0995 825 18 12 5 255
151.871 83.0995 825 24 15 1 255
154.362 82.898 823 22 16 1 255
157.22 82.898 823 17 14 4 255
160.468 83.0995 825 23 6 3 255
162.938 82.898 823 28 4 1 255
165.393 82.6966 821 31 12 8 255
168.245 82.6966 821 51 33 2 255
171.096 82.6966 821 58 38 1 255
174.372 82.898 823 44 21 1 255
177.661 83.0995 825 30 13 16 255
180.526 83.0995 825 26 15 6 255
183.392 83.0995 825 30 14 2 255
186.257 83.0995 825 36 21 4 255
189.123 83.0995 825 47 21 10 255
193.385 83.7039 831 58 35 10 255
196.743 83.9053 833 62 31 3 255
200.595 84.3082 837 55 26 1 255
203.989 84.5097 839 52 24 5 255
206.903 84.5097 839 57 19 4 255
210.317 84.7111 841 68 32 15 255
213.238 84.7111 841 84 62 9 255
790.531 286.567 2845 75 58 38 255
793.941 284.251 2822 76 59 45 255
817.129 288.985 2869 72 63 62 255
827.094 288.985 2869 73 57 33 255
844.062 291.402 2893 73 60 35 255
847.024 288.985 2869 75 62 33 255
864.158 291.402 2893 79 60 71 255
866.954 288.985 2869 80 55 26 255
869.584 286.567 2845 77 56 42 255
886.884 288.985 2869 77 56 43 255
889.347 286.567 2845 74 59 39 255
899.229 286.567 2845 37 9 44 255
916.779 288.985 2869 29 44 14 255
918.992 286.567 2845 59 51 23 255
921.364 284.251 2822 66 53 21 255
923.577 281.934 2799 66 51 20 255
918.294 277.401 2754 66 55 46 255
920.784 275.286 2733 66 53 71 255
930.277 275.286 2733 67 53 49 255
932.204 273.07 2711 67 63 17 255
927.033 268.839 2669 68 64 46 255
929.287 266.825 2649 72 58 42 255
924.317 262.796 2609 70 64 38 255
926.223 260.781 2589 68 64 42 255
928.353 258.868 2570 70 60 51 255
930.35 256.954 2551 72 66 43 255
939.21 256.954 2551 74 65 34 255
927.63 251.414 2496 77 63 40 255
929.547 249.601 2478 79 65 47 255
931.34 247.788 2460 77 72 49 255
933.389 246.075 2443 79 78 72 255
935.32 244.363 2426 83 76 60 255
937.133 242.651 2409 84 70 77 255
938.828 240.938 2392 88 79 89 255
940.801 239.327 2376 91 78 63 255
949.054 239.327 2376 91 78 41 255
950.457 237.614 2359 88 80 56 255
952.148 236.003 2343 87 80 83 255
941.433 231.369 2297 90 80 76 255
936.598 228.247 2266 94 78 66 255
944.469 228.247 2266 94 79 85 255
952.339 228.247 2266 91 84 43 255
954.277 226.836 2252 91 83 78 255
949.71 223.915 2223 91 87 77 255
950.971 222.404 2208 92 88 73 255
952.562 220.994 2194 95 86 82 255
954.493 219.685 2181 96 90 77 255
955.893 218.275 2167 95 88 57 255
951.415 215.555 2140 97 89 77 255
941.374 211.627 2101 102 85 77 255
942.802 210.317 2088 102 89 78 255
950.054 210.317 2088 103 89 73 255
951.804 209.109 2076 103 87 78 255
947.466 206.59 2051 100 90 76 255
954.59 206.59 2051 101 92 78 255
956.087 205.382 2039 99 94 75 255
946.164 201.756 2003 100 89 110 255
953.121 201.756 2003 107 86 95 255
943.781 198.331 1969 106 88 75 255
939.999 196.115 1947 102 93 103 255
941.412 195.007 1936 103 94 90 255
948.137 195.007 1936 110 94 103 255
944.504 192.892 1915 111 91 89 255
-1068.57 213.714 2051 101 71 64 255
-1061.45 213.714 2051 94 60 56 255
-1054.32 213.714 2051 85 64 47 255
-1047.2 213.714 2051 84 63 17 255
-1040.08 213.714 2051 83 59 47 255
-1032.95 213.714 2051 84 58 45 255
-1031.83 214.965 2063 92 59 64 255
-1024.66 214.965 2063 93 54 40 255
-1017.5 214.965 2063 93 59 18 255
-1010.33 214.965 2063 92 51 7 255
-1003.17 214.965 2063 91 55 24 255
-1002.28 216.319 2076 94 55 56 255
-995.068 216.319 2076 96 57 43 255
-993.568 217.57 2088 95 50 42 255
-986.315 217.57 2088 91 56 38 255
-979.063 217.57 2088 92 60 29 255
-971.811 217.57 2088 95 60 36 255
-964.559 217.57 2088 95 60 25 255
-963.266 218.924 2101 95 59 34 255
-955.969 218.924 2101 97 60 53 255
-942.802 217.57 2088 97 58 40 255
-935.549 217.57 2088 96 56 38 255
-928.297 217.57 2088 99 56 35 255
-921.045 217.57 2088 100 55 49 255
-919.482 218.924 2101 97 55 41 255
-912.184 218.924 2101 96 63 54 255
-904.887 218.924 2101 96 56 27 255
-897.589 218.924 2101 97 61 43 255
-895.8 220.279 2114 99 63 67 255
-893.921 221.633 2127 94 53 44 255
-886.534 221.633 2127 95 62 36 255
-879.146 221.633 2127 99 62 58 255
-871.758 221.633 2127 99 62 32 255
-864.37 221.633 2127 100 65 33 255
-856.982 221.633 2127 102 64 32 255
-854.787 222.988 2140 100 65 22 255
-847.354 222.988 2140 96 72 20 255
-834.819 221.633 2127 98 71 52 255
-827.431 221.633 2127 102 66 42 255
-825.056 222.988 2140 106 65 64 255
-822.59 224.343 2153 106 56 41 255
-820.412 225.801 2167 100 62 27 255
-812.885 225.801 2167 97 58 15 255
-805.358 225.801 2167 98 64 28 255
-802.986 227.26 2181 97 66 39 255
-790.305 225.801 2167 97 64 33 255
-782.778 225.801 2167 98 58 38 255
-775.251 225.801 2167 98 62 43 255
-767.725 225.801 2167 99 60 54 255
-765.109 227.26 2181 99 57 2 255
-757.534 227.26 2181 103 64 22 255
-749.959 227.26 2181 101 52 43 255
-742.383 227.26 2181 92 50 31 255
-734.808 227.26 2181 88 50 50 255
-722.564 225.801 2167 91 56 56 255
-715.038 225.801 2167 96 60 25 255
-707.511 225.801 2167 100 66 53 255
-704.507 227.26 2181 103 62 37 255
-696.931 227.26 2181 105 68 30 255
-693.465 228.615 2194 107 71 31 255
-681.781 227.26 2181 105 67 42 255
-674.205 227.26 2181 103 69 14 255
-666.63 227.26 2181 99 77 61 255
-659.055 227.26 2181 99 69 17 255
-651.479 227.26 2181 102 60 32 255
-643.904 227.26 2181 103 65 36 255
-636.329 227.26 2181 101 71 40 255
-628.753 227.26 2181 98 56 69 255
-621.178 227.26 2181 100 60 54 255
-621.199 230.074 2208 101 56 41 255
-613.53 230.074 2208 103 68 32 255
-605.86 230.074 2208 101 65 49 255
-598.191 230.074 2208 103 65 29 255
-590.522 230.074 2208 105 65 16 255
-582.853 230.074 2208 100 63 49 255
-579.091 231.637 2223 100 69 21 255
-567.515 230.074 2208 102 70 55 255
-563.649 231.637 2223 102 61 51 255
-555.928 231.637 2223 96 69 44 255
-548.207 231.637 2223 93 69 55 255
-543.889 233.095 2237 91 55 24 255
-536.119 233.095 2237 90 55 72 255
-528.35 233.095 2237 93 51 46 255
-520.58 233.095 2237 95 58 58 255
-512.81 233.095 2237 98 59 32 255
-505.04 233.095 2237 99 60 46 255
-497.27 233.095 2237 102 63 30 255
-489.5 233.095 2237 103 58 39 255
-481.73 233.095 2237 100 61 59 255
-473.961 233.095 2237 98 61 43 255
-466.191 233.095 2237 102 68 51 255
-458.421 233.095 2237 107 67 14 255
-450.651 233.095 2237 107 72 37 255
-445.851 234.658 2252 109 71 53 255
-440.752 236.117 2266 91 61 45 255
-453.895 247.579 2376 69 52 51 255
-445.643 247.579 2376 66 56 45 255
-437.39 247.579 2376 63 52 59 255
-429.137 247.579 2376 65 61 61 255
-420.885 247.579 2376 75 65 47 255
-412.632 247.579 2376 73 63 47 255
-404.379 247.579 2376 72 60 70 255
-396.127 247.579 2376 76 64 39 255
-385.099 245.808 2359 74 65 52 255
-376.905 245.808 2359 75 73 48 255
-368.712 245.808 2359 77 66 57 255
-363.116 247.579 2376 79 68 47 255
-354.864 247.579 2376 81 67 62 255
-346.611 247.579 2376 77 74 87 255
-338.358 247.579 2376 76 65 37 255
-332.329 249.246 2392 80 64 62 255
-324.02 249.246 2392 80 66 74 255
-313.6 247.579 2376 81 62 70 255
-305.348 247.579 2376 82 68 65 255
-297.095 247.579 2376 83 74 60 255
-290.787 249.246 2392 82 77 40 255
-282.479 249.246 2392 75 57 44 255
-272.337 247.579 2376 74 65 81 255
-264.084 247.579 2376 57 58 63 255
-255.832 247.579 2376 54 50 55 255
-247.579 247.579 2376 76 64 67 255
-240.938 249.246 2392 56 60 31 255
-232.63 249.246 2392 56 65 48 255
-224.322 249.246 2392 78 72 51 255
-216.014 249.246 2392 72 68 76 255
-210.658 252.789 2426 63 60 39 255
-203.648 254.561 2443 59 56 40 255
-195.163 254.561 2443 61 60 43 255
-185.379 252.789 2426 67 52 41 255
-178.192 254.561 2443 68 67 40 255
-169.707 254.561 2443 60 58 23 255
-162.344 256.332 2460 58 62 31 255
-153.799 256.332 2460 61 68 61 255
-145.255 256.332 2460 63 64 49 255
-135.766 254.561 2443 61 58 41 255
-127.28 254.561 2443 61 54 46 255
-118.795 254.561 2443 63 55 41 255
-110.31 254.561 2443 64 64 49 255
-102.533 256.332 2460 63 55 37 255
-93.9884 256.332 2460 64 48 43 255
-85.444 256.332 2460 62 39 41 255
-76.3682 254.561 2443 56 54 51 255
-67.8828 254.561 2443 52 51 47 255
-58.9841 252.789 2426 51 41 61 255
-50.9121 254.561 2443 52 42 35 255
-42.4268 254.561 2443 52 35 37 255
-33.9414 254.561 2443 53 58 45 255
-25.4561 254.561 2443 55 45 49 255
-16.9707 254.561 2443 56 43 57 255
-8.5444 256.332 2460 54 45 53 255
0 254.561 2443 52 29 60 255
8.48535 254.561 2443 47 29 47 255
16.9707 254.561 2443 47 23 47 255
25.6332 256.332 2460 50 34 47 255
33.7052 252.789 2426 50 33 46 255
42.4268 254.561 2443 50 19 43 255
51.2664 256.332 2460 49 25 51 255
59.3975 254.561 2443 41 21 53 255
67.8828 254.561 2443 43 39 53 255
75.3053 251.018 2409 51 29 47 255
83.6726 251.018 2409 51 30 39 255
92.6894 252.789 2426 53 27 41 255
101.824 254.561 2443 52 19 44 255
110.31 254.561 2443 51 17 31 255
118.795 254.561 2443 51 17 39 255
127.28 254.561 2443 44 33 71 255
133.876 251.018 2409 44 32 47 255
143.247 252.789 2426 50 31 45 255
92.8144 89.8204 862 21 5 11 255
95.8084 89.8204 862 15 10 28 255
98.344 89.4036 858 15 11 14 255
101.324 89.4036 858 18 13 20 255
104.304 89.4036 858 18 6 2 255
107.034 89.1952 856 15 10 4 255
109.75 88.9868 854 13 10 1 255
112.189 88.57 850 16 15 21 255
114.193 87.8406 843 19 9 1 255
116.565 87.4238 839 19 12 1 255
119.194 87.2154 837 23 10 16 255
122.102 87.2154 837 24 12 4 255
124.71 87.007 835 16 4 1 255
127.305 86.7986 833 13 9 2 255
130.198 86.7986 833 14 7 8 255
132.772 86.5902 831 22 7 4 255
135.658 86.5902 831 27 4 9 255
138.878 86.7986 833 18 13 1 255
141.09 86.3818 829 12 17 1 255
143.97 86.3818 829 13 15 2 255
146.141 85.965 825 17 12 10 255
149.006 85.965 825 19 9 2 255
151.135 85.5482 821 22 12 1 255
153.987 85.5482 821 23 12 2 255
156.838 85.5482 821 21 8 5 255
159.69 85.5482 821 14 7 22 255
162.542 85.5482 821 16 9 3 255
164.99 85.3398 819 30 15 12 255
167.425 85.1314 817 45 30 16 255
170.68 85.3398 819 48 34 1 255
173.948 85.5482 821 39 14 13 255
176.369 85.3398 819 33 13 2 255
180.089 85.7566 823 35 14 17 255
182.947 85.7566 823 30 10 5 255
185.806 85.7566 823 26 12 6 255
188.665 85.7566 823 39 21 7 255
191.988 85.965 825 55 31 15 255
195.326 86.1734 827 65 45 6 255
199.157 86.5902 831 51 25 11 255
203.016 87.007 835 40 22 9 255
205.917 87.007 835 53 28 12 255
209.317 87.2154 837 67 27 25 255
212.224 87.2154 837 83 51 27 255
215.645 87.4238 839 98 71 15 255
800.412 296.449 2845 76 59 42 255
810.294 296.449 2845 76 55 61 255
827.094 298.95 2869 79 54 27 255
837.059 298.95 2869 79 61 28 255
847.024 298.95 2869 76 59 43 255
864.158 301.451 2893 71 59 79 255
866.954 298.95 2869 69 60 54 255
876.919 298.95 2869 74 58 57 255
886.884 298.95 2869 75 56 48 255
889.347 296.449 2845 70 67 37 255
899.229 296.449 2845 49 17 42 255
916.779 298.95 2869 45 39 34 255
918.992 296.449 2845 62 48 23 255
921.364 294.052 2822 65 52 23 255
923.577 291.656 2799 63 51 36 255
918.294 286.967 2754 63 49 49 255
920.784 284.779 2733 59 51 69 255
930.277 284.779 2733 61 54 53 255
924.983 280.298 2690 61 47 38 255
927.033 278.11 2669 63 59 51 255
929.287 276.026 2649 73 59 60 255
924.317 271.858 2609 72 59 21 255
926.223 269.774 2589 68 60 45 255
928.353 267.794 2570 69 61 59 255
930.35 265.814 2551 67 64 64 255
932.215 263.834 2532 70 65 39 255
934.32 261.959 2514 76 62 50 255
936.299 260.083 2496 78 70 55 255
938.154 258.208 2478 80 68 62 255
933.389 254.561 2443 83 67 76 255
935.32 252.789 2426 83 72 59 255
937.133 251.018 2409 81 71 70 255
938.828 249.246 2392 86 71 87 255
940.801 247.579 2376 91 74 64 255
942.263 245.808 2359 91 77 71 255
950.457 245.808 2359 88 79 65 255
945.646 242.473 2327 89 78 79 255
941.433 239.347 2297 90 78 90 255
942.798 237.68 2281 91 78 59 255
950.721 237.68 2281 92 78 74 255
952.339 236.117 2266 89 78 40 255
954.277 234.658 2252 89 82 79 255
955.691 233.095 2237 93 83 86 255
950.971 230.074 2208 94 86 78 255
952.562 228.615 2194 96 83 87 255
954.493 227.26 2181 96 85 92 255
955.893 225.801 2167 92 86 81 255
951.415 222.988 2140 94 88 80 255
941.374 218.924 2101 98 86 53 255
