ply
format ascii 1.0
element vertex 1259
property float x
property float y
property float z
property uchar red
property uchar green
property uchar blue
property uchar alpha
end_header
71.1107 -683.502 984.197 18 3 1 255
67.418 -683.438 984.326 11 4 8 255
63.7251 -683.373 984.455 6 5 24 255
60.0323 -683.309 984.584 7 4 1 255
56.3395 -683.244 984.713 6 3 3 255
52.6467 -683.18 984.841 7 3 18 255
48.9539 -683.115 984.97 9 2 1 255
45.2611 -683.051 985.099 14 1 1 255
39.9716 -675.622 975.245 56 92 93 255
35.8021 -673.104 972.044 93 73 85 255
31.7865 -671.199 969.674 90 78 85 255
27.7917 -669.296 967.304 91 84 84 255
24.1753 -669.232 967.43 90 82 74 255
20.5588 -669.169 967.556 86 78 66 255
16.9424 -669.106 967.683 80 68 50 255
13.6522 -670.883 970.307 77 53 75 255
10.0253 -670.82 970.434 68 44 84 255
6.09297 -668.917 968.062 71 73 75 255
2.47651 -668.854 968.188 43 23 83 255
-1.13995 -668.791 968.314 34 23 40 255
-4.48219 -670.566 970.941 71 51 59 255
-8.10906 -670.503 971.068 80 63 32 255
-11.7359 -670.44 971.194 85 66 78 255
-15.3628 -670.376 971.321 88 86 108 255
-18.7571 -672.151 973.949 94 77 83 255
-22.3944 -672.088 974.076 95 79 77 255
-26.0317 -672.024 974.203 92 79 62 255
-30.0716 -668.286 969.325 91 80 67 255
-33.6881 -668.222 969.451 88 73 89 255
-37.3045 -668.159 969.577 68 93 40 255
-40.921 -668.096 969.704 30 3 17 255
-44.5374 -668.033 969.83 10 3 2 255
-47.8554 -671.643 974.966 6 2 16 255
-51.6315 -669.743 972.588 7 3 1 255
-55.2584 -669.68 972.714 7 5 1 255
-59.0033 -667.781 970.335 5 4 11 255
-62.5121 -669.553 972.968 6 8 1 255
-66.139 -669.49 973.094 9 8 12 255
-69.7658 -669.427 973.221 9 4 1 255
-73.3927 -669.364 973.348 8 3 12 255
-77.0196 -669.3 973.474 8 3 4 255
-80.5909 -671.072 976.109 9 4 3 255
-84.2282 -671.009 976.236 10 3 9 255
-87.8191 -673.391 979.708 10 1 10 255
-91.4703 -673.328 979.835 11 1 11 255
-95.1076 -675.098 982.472 8 4 1 255
-98.7691 -675.034 982.6 3 3 1 255
-102.431 -674.971 982.728 5 1 2 255
-106.11 -676.74 985.367 8 1 5 255
-109.782 -676.676 985.495 8 1 19 255
-113.415 -674.779 983.112 8 2 2 255
-117.077 -674.715 983.24 9 3 18 255
-120.68 -672.818 980.856 6 3 1 255
-124.331 -672.754 980.983 4 1 6 255
-127.982 -672.69 981.111 6 4 4 255
-131.633 -672.627 981.238 11 9 17 255
-135.15 -670.12 978.014 12 9 2 255
-138.565 -666.392 973.114 10 9 1 255
-140.239 -637.016 933.014 11 3 14 255
-143.689 -636.956 933.135 17 10 8 255
-146.712 -631.401 925.711 23 7 1 255
-150.028 -630.12 924.153 28 10 1 255
-153.277 -628.229 921.757 29 13 1 255
-156.331 -624.507 916.844 30 21 1 255
-159.589 -623.228 915.284 33 26 11 255
-162.768 -621.338 912.885 37 20 32 255
-166.131 -621.279 913.003 37 17 2 255
-169.279 -619.39 910.603 40 20 1 255
-172.632 -619.332 910.72 51 56 9 255
-175.985 -619.273 910.837 59 61 26 255
-179.337 -619.215 910.954 64 58 30 255
-182.69 -619.156 911.071 69 74 37 255
-186.31 -620.927 913.708 77 72 32 255
-189.673 -620.868 913.825 86 91 54 255
-193.036 -620.81 913.943 88 72 27 255
-196.399 -620.751 914.06 90 78 44 255
-202.336 -635.932 935.183 91 83 36 255
-206.105 -637.7 937.825 93 79 64 255
-208.577 -632.155 930.381 102 107 32 255
-212.006 -632.095 930.501 110 93 48 255
-215.785 -633.863 933.143 110 92 63 255
-221.029 -642.942 945.875 113 92 83 255
-224.768 -644.1 947.679 81 66 45 255
-228.649 -645.866 950.325 24 3 11 255
-396.517 -1309.35 1868.11 13 9 5 255
-401.929 -1301.31 1857.43 13 10 3 255
-411.101 -1309.09 1868.62 13 16 10 255
-418.393 -1308.97 1868.88 13 15 2 255
-425.685 -1308.84 1869.13 14 10 3 255
-432.977 -1308.71 1869.39 15 9 6 255
-438.163 -1300.67 1858.69 21 13 7 255
-445.41 -1300.55 1858.94 19 10 19 255
-450.63 -1293.12 1849.09 10 8 2 255
-457.835 -1292.99 1849.34 10 4 3 255
-465.041 -1292.87 1849.59 9 7 28 255
-472.246 -1292.74 1849.84 11 12 3 255
-481.644 -1299.91 1860.21 23 9 5 255
-488.891 -1299.79 1860.46 24 13 17 255
-496.138 -1299.66 1860.72 11 16 3 255
-503.385 -1299.53 1860.97 4 14 2 255
-510.631 -1299.41 1861.22 8 18 3 255
-515.477 -1291.99 1851.35 15 11 2 255
-522.682 -1291.86 1851.6 18 6 7 255
-529.887 -1291.74 1851.86 15 3 4 255
-539.619 -1298.9 1862.23 13 14 15 255
-546.865 -1298.78 1862.49 13 5 1 255
-554.112 -1298.65 1862.74 13 10 1 255
-561.359 -1298.52 1862.99 14 7 23 255
-568.606 -1298.4 1863.25 22 5 7 255
-578.815 -1306.17 1874.48 23 5 4 255
-586.107 -1306.04 1874.73 14 14 9 255
-593.399 -1305.91 1874.99 14 12 2 255
-597.593 -1297.89 1864.26 25 10 1 255
-604.84 -1297.76 1864.51 22 4 2 255
-609.144 -1290.35 1854.62 20 3 14 255
-616.349 -1290.23 1854.88 33 32 10 255
-626.58 -1297.38 1865.27 49 40 1 255
-633.827 -1297.26 1865.53 44 19 2 255
-637.964 -1289.85 1855.63 25 10 18 255
-645.169 -1289.72 1855.88 23 21 9 255
-652.375 -1289.6 1856.13 19 13 2 255
-656.076 -1281.58 1845.39 17 19 5 255
-436.26 -715.609 1057.97 27 6 96 255
-438.983 -713.116 1054.72 154 224 229 255
-441.677 -710.623 1051.47 253 247 245 255
-445.575 -710.555 1051.6 253 254 239 255
-450.717 -712.911 1055.13 253 254 235 255
-454.629 -712.843 1055.27 250 244 245 255
-458.54 -712.774 1055.4 248 246 239 255
-463.738 -715.129 1058.93 248 239 240 255
-466.363 -712.638 1055.68 248 243 234 255
-470.274 -712.57 1055.81 248 243 240 255
-474.186 -712.501 1055.95 248 244 232 255
-478.097 -712.433 1056.09 250 246 238 255
-482.009 -712.365 1056.22 249 246 243 255
-485.92 -712.297 1056.36 247 246 246 255
-491.215 -714.65 1059.89 248 245 241 255
-493.743 -712.16 1056.63 249 244 243 255
-497.655 -712.092 1056.77 250 249 234 255
-501.566 -712.023 1056.91 249 244 238 255
-505.478 -711.955 1057.04 249 245 237 255
-507.936 -709.467 1053.78 251 245 240 255
-511.834 -709.399 1053.92 242 231 159 255
-515.731 -709.331 1054.05 178 33 63 255
-521.123 -711.682 1057.59 112 116 53 255
-525.035 -711.614 1057.73 164 149 191 255
-528.946 -711.546 1057.86 242 246 248 255
-532.858 -711.477 1058 251 248 243 255
-536.769 -711.409 1058.14 247 240 238 255
-540.681 -711.341 1058.27 247 238 234 255
-544.592 -711.272 1058.41 248 243 236 255
-548.504 -711.204 1058.54 247 242 234 255
-550.81 -708.718 1055.28 245 236 234 255
-556.327 -711.068 1058.82 246 234 234 255
-558.605 -708.582 1055.55 248 245 239 255
-562.502 -708.514 1055.69 248 243 239 255
-566.4 -708.446 1055.82 247 240 227 255
-569.041 -706.566 1053.41 245 238 241 255
-574.195 -708.31 1056.1 246 235 224 255
-576.815 -706.43 1053.68 246 231 227 255
-581.99 -708.174 1056.37 245 228 227 255
-585.888 -708.106 1056.5 246 238 231 255
-591.53 -710.453 1060.05 246 238 231 255
-595.441 -710.385 1060.18 247 236 221 255
-597.58 -707.902 1056.91 248 234 211 255
-601.478 -707.834 1057.05 247 237 230 255
-605.376 -707.766 1057.18 246 229 225 255
-609.273 -707.698 1057.32 245 229 223 255
-613.171 -707.63 1057.46 245 232 224 255
-617.068 -707.562 1057.59 243 230 224 255
-622.822 -709.907 1061.14 243 216 225 255
1012.01 -1317.39 1784.55 74 63 54 255
1004.85 -1317.27 1784.8 82 71 41 255
997.685 -1317.14 1785.05 73 74 80 255
990.525 -1317.02 1785.3 64 62 52 255
983.365 -1316.89 1785.55 74 55 68 255
976.205 -1316.77 1785.8 82 63 86 255
975.782 -1324.75 1796.68 97 90 41 255
968.577 -1324.62 1796.93 90 55 89 255
967.507 -1331.98 1806.99 77 72 75 255
960.26 -1331.85 1807.25 94 61 62 255
946.961 -1324.25 1797.69 82 59 81 255
939.756 -1324.12 1797.94 79 67 93 255
932.551 -1323.99 1798.19 90 56 67 255
925.346 -1323.87 1798.44 79 69 48 255
918.141 -1323.74 1798.69 75 62 25 255
904.605 -1315.52 1788.3 77 70 78 255
897.445 -1315.39 1788.55 77 73 56 255
890.285 -1315.27 1788.8 63 59 54 255
883.125 -1315.14 1789.05 64 61 26 255
875.965 -1315.02 1789.3 69 51 48 255
863.169 -1307.42 1779.73 70 66 75 255
854.485 -1314.64 1790.05 72 59 95 255
847.325 -1314.52 1790.3 71 59 73 255
840.165 -1314.39 1790.56 70 45 61 255
833.005 -1314.27 1790.81 67 49 36 255
825.844 -1314.14 1791.06 71 54 54 255
824.474 -1322.11 1801.96 78 60 78 255
811.524 -1313.89 1791.56 87 51 72 255
804.364 -1313.77 1791.81 86 55 82 255
797.204 -1313.64 1792.06 79 68 47 255
790.044 -1313.52 1792.31 79 64 32 255
782.884 -1313.39 1792.56 75 54 63 255
775.724 -1313.27 1792.81 71 58 73 255
768.564 -1313.14 1793.06 72 53 64 255
761.404 -1313.02 1793.31 65 54 60 255
759.627 -1320.98 1804.23 64 53 35 255
752.422 -1320.85 1804.48 76 88 92 255
745.217 -1320.72 1804.73 72 56 77 255
738.012 -1320.6 1804.98 68 45 60 255
725.604 -1312.39 1794.56 69 60 72 255
711.284 -1312.14 1795.06 70 39 52 255
704.124 -1312.02 1795.31 71 51 59 255
701.986 -1319.97 1806.24 68 47 46 255
694.781 -1319.84 1806.49 66 50 73 255
682.644 -1311.64 1796.06 66 52 23 255
263.209 -671.252 950.263 34 21 42 255
258.58 -669.328 947.919 23 17 7 255
256.039 -671.127 950.514 19 5 15 255
252.454 -671.065 950.639 37 29 36 255
248.868 -671.002 950.764 53 38 28 255
244.28 -669.078 948.418 50 30 56 255
238.39 -664.673 942.776 38 19 44 255
232.876 -660.889 937.957 37 12 20 255
229.346 -660.827 938.08 37 31 23 255
224.855 -658.905 935.731 37 25 49 255
221.336 -658.844 935.853 39 16 44 255
217.817 -658.782 935.976 38 10 24 255
215.227 -660.581 938.573 36 11 20 255
211.698 -660.519 938.696 32 16 21 255
209.077 -662.317 941.294 20 20 9 255
205.537 -662.256 941.418 14 12 6 255
202.885 -664.053 944.016 12 9 5 255
199.334 -663.991 944.14 18 12 9 255
196.651 -665.788 946.74 19 7 22 255
193.09 -665.726 946.865 9 10 9 255
189.529 -665.664 946.989 7 4 6 255
185.969 -665.602 947.113 9 7 20 255
183.509 -668.017 950.541 12 7 13 255
180.749 -669.813 953.143 14 4 26 255
177.164 -669.75 953.268 14 8 15 255
174.373 -671.546 955.872 15 2 32 255
171.562 -673.34 958.477 16 4 13 255
168.729 -675.135 961.082 19 3 34 255
165.876 -676.929 963.687 15 4 3 255
163.002 -678.723 966.294 9 9 1 255
160.355 -681.135 969.728 6 7 1 255
158.9 -686.641 977.297 3 4 2 255
155.939 -688.434 979.907 3 2 7 255
151.535 -686.513 977.554 4 2 20 255
146.451 -682.736 972.72 5 3 1 255
141.178 -678.342 967.056 5 3 5 255
134.141 -669 954.771 8 7 15 255
128.994 -664.607 949.103 13 9 11 255
126.312 -667.019 952.539 19 6 15 255
122.737 -666.957 952.663 18 6 1 255
119.162 -666.894 952.788 12 10 1 255
116.215 -668.687 955.397 13 10 1 255
113.247 -670.479 958.007 14 11 1 255
110.259 -672.27 960.618 11 5 2 255
107.25 -674.062 963.229 10 6 2 255
104.219 -675.853 965.841 12 7 38 255
101.168 -677.643 968.453 11 7 3 255
97.5311 -677.58 968.581 11 8 14 255
94.6339 -679.988 972.023 10 7 6 255
91.5273 -681.778 974.638 10 7 6 255
88.4 -683.567 977.253 18 9 2 255
85.2518 -685.356 979.869 19 4 4 255
81.5694 -685.292 979.998 13 9 3 255
78.3899 -687.08 982.615 12 8 32 255
74.6971 -687.015 982.744 11 9 1 255
71.6472 -689.421 986.192 12 5 3 255
67.9405 -689.356 986.322 12 4 7 255
63.6187 -686.822 983.131 15 5 9 255
60.5271 -689.227 986.581 13 2 1 255
56.8204 -689.162 986.71 6 9 4 255
53.1137 -689.097 986.839 5 4 19 255
49.8267 -690.884 989.46 10 1 1 255
45.7003 -688.968 987.098 32 1 3 255
39.8664 -679.032 973.936 64 81 99 255
35.6973 -676.501 970.74 68 54 68 255
31.682 -674.587 968.374 67 50 78 255
28.0551 -674.523 968.501 77 39 63 255
24.4282 -674.46 968.628 79 53 67 255
21.1482 -676.247 971.248 80 73 66 255
17.5109 -676.183 971.375 80 70 85 255
13.8736 -676.12 971.502 89 72 75 255
10.2363 -676.056 971.629 92 75 82 255
6.2939 -674.144 969.261 88 79 70 255
2.66703 -674.08 969.388 90 80 80 255
-0.959846 -674.017 969.514 86 58 34 255
-4.31281 -675.802 972.138 81 65 53 255
-7.95009 -675.739 972.265 77 62 20 255
-11.5874 -675.675 972.392 53 48 71 255
-15.2246 -675.612 972.519 50 50 95 255
-18.8619 -675.548 972.646 76 52 89 255
-22.4992 -675.485 972.773 85 78 67 255
-26.1365 -675.421 972.9 87 81 76 255
-29.7738 -675.358 973.027 87 74 89 255
-33.4111 -675.294 973.154 92 79 79 255
-37.0483 -675.231 973.281 59 46 23 255
-40.6856 -675.167 973.408 15 1 19 255
-44.3229 -675.104 973.535 7 2 1 255
-47.9602 -675.04 973.662 5 4 12 255
-51.5975 -674.977 973.789 7 4 1 255
-55.2347 -674.913 973.916 6 5 1 255
-58.872 -674.85 974.043 5 6 11 255
-62.5093 -674.786 974.17 5 4 1 255
-66.1466 -674.723 974.297 4 4 11 255
-69.7839 -674.659 974.424 8 1 1 255
-73.4212 -674.596 974.551 7 1 10 255
-77.0584 -674.532 974.678 4 6 4 255
-80.6957 -674.469 974.805 6 2 3 255
-84.2732 -676.865 978.272 7 4 10 255
-87.8899 -678.646 980.904 6 3 26 255
-91.5515 -678.582 981.032 6 1 10 255
-95.2131 -678.518 981.16 7 3 1 255
-98.8747 -678.454 981.288 5 2 1 255
-102.543 -680.234 983.922 5 3 6 255
-106.233 -682.013 986.557 6 3 4 255
-109.915 -681.949 986.686 6 3 20 255
-113.521 -678.198 981.799 5 3 2 255
-117.134 -676.292 979.419 4 2 17 255
-120.785 -676.228 979.547 5 1 1 255
-124.436 -676.164 979.674 9 4 2 255
-128.087 -676.1 979.802 12 5 1 255
-131.738 -676.037 979.929 15 10 1 255
-132.967 -631.762 919.825 15 14 1 255
-136.072 -626.791 913.25 23 17 2 255
-143.656 -638.336 929.387 54 46 13 255
-146.43 -629.683 917.789 61 42 1 255
-149.668 -627.782 915.396 61 38 1 255
-153.048 -627.724 915.514 52 37 3 255
-155.965 -622.756 908.933 49 34 1 255
-159.318 -622.697 909.05 40 34 13 255
-162.476 -620.798 906.654 41 35 36 255
-165.818 -620.74 906.771 53 30 2 255
-169.017 -619.455 905.212 55 40 1 255
-172.352 -619.396 905.328 46 40 1 255
-175.845 -620.565 907.121 44 38 15 255
-179.187 -620.506 907.238 45 30 25 255
-182.53 -620.448 907.354 48 34 36 255
-185.872 -620.39 907.471 64 50 13 255
-189.029 -619.105 905.911 80 46 22 255
-192.364 -619.047 906.027 84 63 34 255
-195.7 -618.989 906.144 84 80 11 255
-199.035 -618.931 906.26 84 60 28 255
-202.583 -620.098 908.055 84 66 30 255
-207.795 -630.456 922.438 80 59 30 255
-211.537 -632.234 925.075 89 74 39 255
-214.598 -630.337 922.676 101 90 33 255
-218.361 -632.115 925.314 101 86 70 255
-224.621 -646.142 944.746 53 9 4 255
-229.132 -650.981 951.587 7 18 17 255
-393.197 -1300.85 1844.49 16 7 22 255
-400.402 -1300.73 1844.74 15 9 3 255
-407.607 -1300.6 1844.99 13 11 3 255
-416.632 -1307.82 1855.33 13 14 1 255
-423.879 -1307.69 1855.59 16 11 1 255
-431.126 -1307.57 1855.84 17 11 1 255
-436.428 -1300.1 1846 15 12 4 255
-443.633 -1299.97 1846.25 13 10 17 255
-450.838 -1299.85 1846.5 11 3 2 255
-458.043 -1299.72 1846.76 13 4 2 255
-465.248 -1299.6 1847.01 12 5 2 255
-472.453 -1299.47 1847.26 11 7 4 255
-479.659 -1299.34 1847.51 7 5 6 255
-486.864 -1299.22 1847.76 10 6 17 255
-494.069 -1299.09 1848.01 16 6 3 255
-501.274 -1298.97 1848.27 21 5 3 255
-508.479 -1298.84 1848.52 18 6 3 255
-515.684 -1298.72 1848.77 14 10 6 255
-522.889 -1298.59 1849.02 19 4 4 255
-530.095 -1298.46 1849.27 15 4 32 255
-537.3 -1298.34 1849.52 11 4 7 255
-544.505 -1298.21 1849.78 13 17 1 255
-548.881 -1290.15 1839.07 20 12 1 255
-556.041 -1290.02 1839.32 20 9 1 255
-566.12 -1297.84 1850.53 13 10 2 255
-576.062 -1305.04 1860.9 13 7 3 255
-583.308 -1304.91 1861.16 13 12 9 255
-590.555 -1304.78 1861.41 13 12 1 255
-597.802 -1304.66 1861.66 15 8 1 255
-602.146 -1297.21 1851.79 26 3 16 255
-606.162 -1289.15 1841.07 40 62 9 255
-613.322 -1289.02 1841.32 39 39 28 255
-620.482 -1288.9 1841.57 26 5 2 255
-627.642 -1288.77 1841.82 14 5 1 255
-634.802 -1288.65 1842.07 13 4 14 255
-641.962 -1288.52 1842.32 16 13 6 255
-649.122 -1288.4 1842.57 13 20 2 255
-656.282 -1288.27 1842.82 10 19 2 255
-436.989 -712.503 1047.4 115 134 202 255
-438.746 -708.17 1041.61 241 253 250 255
-442.609 -708.103 1041.75 251 239 237 255
-447.406 -709.863 1044.42 249 246 230 255
-452.538 -712.232 1047.94 249 246 240 255
-457.38 -713.991 1050.61 250 247 226 255
-461.277 -713.923 1050.75 251 246 241 255
-465.175 -713.855 1050.89 249 248 245 255
-469.073 -713.787 1051.02 248 234 240 255
-472.97 -713.719 1051.16 249 245 231 255
-475.861 -711.825 1048.75 250 245 236 255
-479.748 -711.757 1048.89 248 247 242 255
-483.635 -711.689 1049.03 246 237 239 255
-487.522 -711.621 1049.16 247 243 234 255
-491.41 -711.553 1049.3 248 242 236 255
-496.356 -713.311 1051.98 248 242 223 255
-499.184 -711.418 1049.57 248 241 230 255
-501.632 -708.916 1046.31 249 240 233 255
-506.958 -711.282 1049.84 251 246 227 255
-509.378 -708.781 1046.58 253 241 227 255
-513.251 -708.714 1046.72 197 167 49 255
-518.62 -711.078 1050.25 152 121 111 255
-520.998 -708.578 1046.99 126 50 97 255
-524.871 -708.511 1047.12 172 215 240 255
-528.745 -708.443 1047.26 251 249 247 255
-531.455 -706.552 1044.85 247 239 237 255
-536.491 -708.308 1047.53 248 241 225 255
-540.365 -708.24 1047.67 249 241 231 255
-545.83 -710.603 1051.2 248 240 232 255
-549.717 -710.536 1051.33 249 241 228 255
-553.604 -710.468 1051.47 249 245 232 255
-555.858 -707.97 1048.21 247 241 235 255
-559.731 -707.902 1048.34 248 238 237 255
-563.604 -707.835 1048.48 249 246 230 255
-567.478 -707.767 1048.61 248 240 241 255
-571.351 -707.699 1048.75 248 241 228 255
-573.947 -705.81 1046.33 248 241 229 255
-577.81 -705.743 1046.47 247 236 227 255
-581.672 -705.675 1046.6 246 236 233 255
-586.844 -707.429 1049.29 245 237 237 255
-592.476 -709.789 1052.83 244 230 228 255
-594.591 -707.294 1049.56 243 222 224 255
-600.25 -709.654 1053.1 242 229 234 255
-604.138 -709.586 1053.23 242 233 229 255
-609.386 -711.338 1055.92 242 224 223 255
-611.912 -709.45 1053.51 243 234 231 255
-615.799 -709.382 1053.64 244 229 224 255
-621.078 -711.134 1056.33 245 233 226 255
1005.33 -1316.55 1772.2 76 75 54 255
1004.64 -1323.95 1782.24 81 69 69 255
991.095 -1316.3 1772.7 79 70 71 255
990.319 -1323.7 1782.74 77 67 56 255
983.159 -1323.58 1782.99 76 74 65 255
975.999 -1323.45 1783.24 75 59 62 255
975.574 -1331.48 1794.1 75 63 59 255
968.369 -1331.35 1794.35 75 43 75 255
961.164 -1331.23 1794.6 73 63 48 255
953.959 -1331.1 1794.85 76 77 53 255
946.754 -1330.98 1795.1 81 63 78 255
939.548 -1330.85 1795.35 83 71 97 255
932.343 -1330.72 1795.61 80 78 78 255
918.719 -1322.45 1785.24 67 59 53 255
917.933 -1330.47 1796.11 65 53 22 255
910.728 -1330.35 1796.36 87 62 85 255
903.523 -1330.22 1796.61 89 73 52 255
896.317 -1330.09 1796.86 78 72 58 255
877.201 -1314.31 1776.68 82 72 18 255
864.407 -1306.68 1767.12 88 74 47 255
857.33 -1306.55 1767.36 86 68 74 255
850.253 -1306.43 1767.61 78 68 21 255
843.177 -1306.31 1767.86 77 50 81 255
841.609 -1313.69 1777.92 76 63 52 255
839.958 -1321.08 1787.99 74 64 48 255
832.798 -1320.95 1788.24 77 64 20 255
825.638 -1320.83 1788.49 81 80 44 255
818.478 -1320.7 1788.74 79 59 79 255
811.318 -1320.58 1788.99 66 50 75 255
798.899 -1312.95 1779.41 64 60 68 255
791.78 -1312.82 1779.66 68 69 53 255
784.662 -1312.7 1779.91 66 58 39 255
782.678 -1320.08 1789.99 65 3 72 255
770.425 -1312.45 1780.41 70 67 83 255
758.256 -1304.82 1770.82 88 62 66 255
756.188 -1312.2 1780.91 83 54 59 255
749.07 -1312.08 1781.15 73 67 24 255
746.878 -1319.45 1791.24 76 64 64 255
739.718 -1319.33 1791.49 66 59 60 255
706.36 -1311.33 1782.65 69 50 50 255
699.241 -1311.21 1782.89 74 60 54 255
696.758 -1318.58 1792.99 75 59 36 255
689.598 -1318.45 1793.24 67 47 56 255
258.477 -672.666 946.638 35 14 9 255
254.902 -672.604 946.762 40 26 23 255
251.327 -672.542 946.887 42 45 52 255
246.402 -669.984 943.723 24 30 5 255
241.838 -668.051 941.38 24 17 30 255
236.304 -664.247 936.568 43 22 36 255
231.792 -662.315 934.223 46 28 30 255
228.273 -662.253 934.346 45 26 36 255
223.793 -660.321 932 41 26 44 255
220.284 -660.26 932.123 31 26 32 255
216.775 -660.199 932.245 30 26 12 255
214.196 -662.008 934.838 36 23 12 255
210.677 -661.946 934.961 34 24 28 255
208.066 -663.754 937.554 28 21 3 255
205.435 -665.562 940.149 22 14 1 255
201.007 -663.631 937.801 17 7 20 255
198.355 -665.438 940.396 16 6 34 255
195.682 -667.245 942.992 15 10 10 255
192.988 -669.052 945.588 8 11 4 255
190.555 -671.481 949.01 7 10 7 255
186.98 -671.418 949.135 10 4 41 255
184.231 -673.224 951.733 9 4 16 255
180.646 -673.161 951.858 8 12 12 255
177.061 -673.099 951.983 8 16 13 255
174.27 -674.904 954.583 11 5 29 255
170.674 -674.841 954.709 10 4 8 255
168.625 -678.512 959.785 6 5 37 255
165.772 -680.316 962.387 5 6 3 255
162.897 -682.12 964.99 7 4 1 255
160.25 -684.545 968.419 6 4 1 255
158.062 -688.214 973.5 4 2 1 255
155.111 -690.016 976.106 3 1 7 255
151.429 -689.952 976.234 6 2 15 255
147.046 -688.022 973.885 7 3 1 255
142.684 -686.092 971.535 3 1 1 255
136.757 -679.81 963.401 5 2 14 255
128.891 -667.933 947.827 7 6 15 255
125.33 -667.871 947.951 11 5 18 255
122.634 -670.295 951.382 17 11 1 255
119.697 -672.098 953.987 16 8 1 255
116.112 -672.035 954.112 8 5 1 255
113.761 -675.701 959.199 9 9 1 255
110.155 -675.638 959.325 16 7 1 255
107.145 -677.439 961.933 17 7 1 255
104.115 -679.24 964.541 17 9 41 255
101.064 -681.04 967.15 17 5 6 255
97.4263 -680.977 967.277 13 8 14 255
94.5286 -683.398 970.714 10 9 6 255
91.4218 -685.197 973.325 9 14 2 255
88.2941 -686.996 975.937 14 4 2 255
85.1457 -688.795 978.549 16 5 9 255
81.9763 -690.593 981.163 13 4 3 255
78.2835 -690.529 981.292 10 5 24 255
75.2471 -692.947 984.734 10 4 2 255
71.5404 -692.883 984.864 9 7 22 255
67.8337 -692.818 984.993 8 4 5 255
64.127 -692.753 985.122 7 3 25 255
60.4203 -692.688 985.252 7 4 1 255
57.1538 -694.485 987.868 4 4 4 255
53.4367 -694.42 987.998 4 5 4 255
50.139 -696.216 990.616 4 1 3 255
46.0025 -694.29 988.258 35 39 3 255
40.1597 -684.302 975.116 81 82 90 255
35.5925 -679.898 969.436 87 80 81 255
31.9552 -679.834 969.563 80 81 88 255
28.3179 -679.771 969.69 83 70 54 255
24.6806 -679.707 969.818 83 68 59 255
21.5053 -682.123 973.265 80 70 80 255
17.8542 -682.059 973.392 78 63 71 255
14.203 -681.996 973.52 71 65 70 255
10.1315 -679.453 970.326 74 70 83 255
6.49421 -679.39 970.453 83 80 84 255
2.85693 -679.326 970.58 84 81 78 255
-0.780342 -679.263 970.707 85 76 84 255
-4.41763 -679.199 970.834 88 76 71 255
-8.05492 -679.136 970.961 88 72 51 255
-11.6922 -679.072 971.088 83 76 73 255
-15.0063 -681.486 974.54 81 76 89 255
-18.9668 -678.945 971.342 84 73 98 255
-22.604 -678.882 971.469 85 78 68 255
-26.2413 -678.818 971.596 83 76 81 255
-29.8786 -678.755 971.723 84 80 93 255
-33.5159 -678.691 971.85 87 71 74 255
-37.1532 -678.628 971.977 45 28 31 255
-40.5645 -681.04 975.433 7 5 10 255
-44.2156 -680.976 975.56 9 3 1 255
-47.7181 -682.769 978.185 5 7 1 255
-51.518 -680.849 975.815 6 5 2 255
-55.0413 -682.641 978.441 6 6 6 255
-58.8203 -680.721 976.07 6 5 1 255
-62.3644 -682.513 978.697 7 4 1 255
-66.026 -682.449 978.824 6 10 1 255
-69.7738 -680.53 976.453 6 4 1 255
-73.4249 -680.466 976.58 5 4 1 255
-77.0761 -680.402 976.708 6 7 2 255
-80.7273 -680.339 976.836 6 3 1 255
-84.3339 -682.129 979.464 4 4 6 255
-87.9613 -683.92 982.093 3 4 25 255
-91.6333 -683.856 982.221 3 3 10 255
-95.3053 -683.792 982.349 5 3 1 255
-98.9744 -685.581 984.98 3 1 1 255
-102.664 -687.37 987.611 2 2 6 255
-106.357 -687.306 987.74 2 3 2 255
-110.022 -685.388 985.366 3 3 2 255
-113.588 -679.765 977.983 3 2 2 255
-117.239 -679.701 978.111 6 3 1 255
-120.89 -679.638 978.238 8 5 1 255
-124.541 -679.574 978.366 9 9 4 255
-126.263 -635.057 918.368 11 3 1 255
-129.664 -634.998 918.487 15 6 2 255
-132.964 -633.086 916.1 18 17 4 255
-136.169 -629.941 912.041 21 18 6 255
-139.42 -628.031 909.652 28 14 12 255
-142.784 -627.972 909.77 28 14 17 255
-146.147 -627.913 909.887 23 5 2 255
-149.357 -626.004 907.497 19 4 1 255
-152.546 -624.094 905.106 17 10 2 255
-155.888 -624.036 905.223 21 17 2 255
-159.107 -622.744 903.667 21 18 2 255
-162.442 -622.686 903.783 17 12 5 255
-165.778 -622.628 903.9 19 5 1 255
-169.113 -622.57 904.016 18 3 1 255
-172.222 -620.662 901.622 15 15 1 255
-175.547 -620.604 901.739 15 10 6 255
-178.872 -620.546 901.855 19 11 11 255
-182.197 -620.487 901.971 22 20 17 255
-185.522 -620.429 902.087 16 10 1 255
-188.847 -620.371 902.203 19 11 17 255
-192.172 -620.313 902.319 40 45 20 255
-195.497 -620.255 902.435 55 53 5 255
-199.131 -622.046 905.065 34 20 27 255
-202.466 -621.987 905.181 20 3 10 255
-206.682 -626.857 912.002 38 26 20 255
-210.386 -628.646 914.633 56 55 36 255
-213.994 -629.818 916.428 74 58 23 255
-217.374 -629.759 916.546 92 93 37 255
-221.127 -631.548 919.179 51 4 2 255
-391.567 -1299.58 1831 11 7 17 255
-398.727 -1299.46 1831.25 11 9 2 255
-407.815 -1307.33 1842.41 11 21 1 255
-415.02 -1307.21 1842.66 12 23 1 255
-422.225 -1307.08 1842.92 20 14 9 255
-429.43 -1306.95 1843.17 17 8 5 255
-436.635 -1306.83 1843.42 8 12 20 255
-443.84 -1306.7 1843.67 12 12 6 255
-448.847 -1298.58 1833 18 15 5 255
-456.007 -1298.46 1833.25 18 12 17 255
-465.456 -1306.33 1844.43 10 13 1 255
-472.661 -1306.2 1844.68 10 10 2 255
-479.866 -1306.07 1844.93 12 10 1 255
-484.647 -1297.96 1834.25 16 14 1 255
-491.808 -1297.83 1834.5 16 14 1 255
-498.968 -1297.71 1834.75 16 14 2 255
-506.128 -1297.58 1835 11 7 1 255
-513.288 -1297.46 1835.25 10 5 5 255
-520.448 -1297.33 1835.5 16 4 2 255
-527.608 -1297.21 1835.75 16 4 56 255
-534.768 -1297.08 1836 15 4 6 255
-541.928 -1296.96 1836.25 12 10 1 255
-546.476 -1289.46 1826.4 13 14 1 255
-550.94 -1281.97 1816.55 14 14 1 255
-560.712 -1289.22 1826.9 8 18 1 255
-570.568 -1296.46 1837.25 6 14 1 255
-580.738 -1304.31 1848.45 11 10 1 255
-587.943 -1304.19 1848.7 13 14 1 255
-592.048 -1296.08 1838 21 8 8 255
-599.208 -1295.96 1838.25 39 38 51 255
-603.423 -1288.47 1828.39 39 29 18 255
-610.541 -1288.35 1828.64 21 7 29 255
-617.659 -1288.22 1828.89 12 7 2 255
-624.778 -1288.1 1829.14 9 9 1 255
-635.008 -1295.33 1839.5 8 14 1 255
-642.168 -1295.21 1839.75 12 10 2 255
-649.328 -1295.08 1840 13 17 1 255
-656.488 -1294.96 1840.25 8 21 1 255
-437.639 -709.328 1036.85 171 229 234 255
-441.488 -709.26 1036.98 251 250 243 255
-446.583 -711.643 1040.5 248 233 234 255
-450.446 -711.576 1040.63 247 242 234 255
-455.264 -713.345 1043.3 248 235 223 255
-459.137 -713.277 1043.44 250 248 239 255
-464.311 -715.659 1046.95 249 241 240 255
-466.884 -713.142 1043.71 248 243 241 255
-470.757 -713.075 1043.84 247 245 238 255
-474.63 -713.007 1043.98 246 236 238 255
-478.504 -712.939 1044.11 246 236 243 255
-482.377 -712.872 1044.25 247 239 233 255
-486.25 -712.804 1044.38 248 242 221 255
-490.123 -712.737 1044.52 249 237 227 255
-493.997 -712.669 1044.65 249 241 222 255
-497.87 -712.601 1044.79 248 244 231 255
-501.743 -712.534 1044.92 248 237 234 255
-505.617 -712.466 1045.06 249 244 227 255
-508.389 -710.564 1042.65 252 243 230 255
-513.363 -712.331 1045.33 242 238 156 255
-517.236 -712.263 1045.47 181 20 112 255
-519.978 -710.362 1043.06 127 144 91 255
-523.841 -710.294 1043.19 155 99 131 255
-527.703 -710.227 1043.33 222 232 244 255
-530.015 -707.715 1040.07 251 239 239 255
-533.864 -707.648 1040.21 248 242 226 255
-539.292 -710.025 1043.73 246 238 232 255
-544.349 -711.79 1046.41 245 236 227 255
-548.223 -711.722 1046.55 246 237 234 255
-552.096 -711.655 1046.68 246 240 236 255
-554.744 -709.755 1044.27 247 240 234 255
-558.606 -709.688 1044.41 247 242 234 255
-562.469 -709.62 1044.54 248 233 233 255
-566.332 -709.553 1044.68 250 246 237 255
-570.195 -709.485 1044.81 248 246 243 255
-570.651 -704.534 1038.16 246 244 235 255
-574.486 -704.467 1038.29 246 234 222 255
-578.321 -704.401 1038.42 245 236 232 255
-583.901 -706.775 1041.96 245 235 237 255
-589.51 -709.148 1045.49 246 240 232 255
-591.599 -706.64 1042.22 246 238 233 255
-595.448 -706.573 1042.36 245 238 238 255
-597.496 -704.066 1039.09 243 220 231 255
-603.146 -706.439 1042.63 243 224 227 255
-608.824 -708.811 1046.16 245 237 229 255
-614.069 -710.573 1048.85 244 228 222 255
-617.942 -710.505 1048.98 244 225 222 255
992.195 -1308.07 1750.11 70 87 59 255
991.584 -1315.51 1760.13 67 46 80 255
984.507 -1315.39 1760.38 58 24 75 255
990.113 -1330.39 1780.17 95 74 73 255
989.777 -1338.46 1791.01 93 51 76 255
982.571 -1338.33 1791.26 70 50 61 255
975.366 -1338.21 1791.51 62 55 95 255
968.161 -1338.08 1791.77 70 59 75 255
960.956 -1337.96 1792.02 67 46 40 255
946.546 -1337.7 1792.52 70 60 73 255
939.341 -1337.58 1792.77 80 62 90 255
925.672 -1329.27 1782.42 73 67 79 255
918.512 -1329.14 1782.67 64 7 69 255
911.352 -1329.02 1782.92 69 63 55 255
904.192 -1328.89 1783.17 74 59 86 255
897.032 -1328.77 1783.42 60 55 40 255
889.872 -1328.64 1783.67 62 55 64 255
876.996 -1320.96 1774.13 79 67 51 255
864.203 -1313.29 1764.58 79 69 90 255
857.126 -1313.16 1764.83 80 74 65 255
844.458 -1305.49 1755.27 83 63 57 255
842.973 -1312.92 1765.32 83 79 57 255
835.896 -1312.79 1765.57 87 65 47 255
828.819 -1312.67 1765.82 87 65 66 255
832.592 -1327.64 1785.67 87 76 41 255
825.432 -1327.52 1785.92 87 68 35 255
818.272 -1327.39 1786.17 77 76 58 255
805.812 -1319.72 1776.61 76 49 72 255
793.436 -1312.05 1767.05 79 58 73 255
786.359 -1311.93 1767.3 85 76 90 255
784.457 -1319.35 1777.36 83 53 64 255
777.339 -1319.22 1777.61 79 75 68 255
770.22 -1319.1 1777.86 79 60 85 255
763.102 -1318.97 1778.1 75 47 67 255
755.983 -1318.85 1778.35 68 50 61 255
743.898 -1311.19 1768.78 53 45 39 255
741.747 -1318.6 1778.85 50 29 47 255
734.628 -1318.48 1779.1 45 26 47 255
727.51 -1318.35 1779.35 48 47 60 255
701.438 -1310.44 1770.26 62 50 65 255
694.361 -1310.32 1770.51 63 34 70 255
687.285 -1310.2 1770.76 67 61 49 255
258.374 -676.005 945.356 40 18 28 255
253.421 -673.434 942.198 41 36 28 255
248.837 -671.491 939.859 33 5 64 255
244.274 -669.548 937.52 34 1 21 255
238.73 -665.724 932.716 46 42 30 255
234.218 -663.782 930.375 55 41 32 255
231.691 -665.601 932.962 53 38 38 255
227.201 -663.66 930.62 49 29 57 255
222.731 -661.718 928.278 47 22 16 255
219.233 -661.657 928.4 44 17 20 255
215.734 -661.596 928.522 41 13 2 255
212.236 -661.535 928.644 38 22 5 255
208.738 -661.474 928.766 35 17 42 255
206.148 -663.292 931.355 34 15 5 255
201.741 -661.352 929.011 31 10 9 255
198.242 -661.291 929.133 26 9 21 255
197.375 -666.866 936.659 20 8 41 255
194.712 -668.683 939.251 16 10 12 255
192.029 -670.499 941.843 12 7 13 255
189.324 -672.315 944.436 9 3 15 255
186.877 -674.757 947.853 10 4 40 255
184.128 -676.572 950.448 10 3 8 255
181.357 -678.387 953.043 7 1 6 255
177.762 -678.325 953.169 11 1 22 255
174.166 -678.262 953.295 14 3 26 255
170.57 -678.199 953.42 11 3 10 255
167.748 -680.013 956.018 13 4 44 255
164.904 -681.827 958.615 14 3 1 255
162.04 -683.64 961.214 11 5 1 255
159.155 -685.453 963.813 10 4 1 255
157.225 -689.767 969.711 9 2 3 255
155.005 -693.455 974.786 8 1 8 255
151.323 -693.391 974.915 11 1 6 255
146.94 -691.451 972.569 10 2 1 255
142.578 -689.512 970.223 3 4 1 255
138.237 -687.573 967.876 3 1 17 255
135.255 -689.384 970.478 3 3 14 255
126.764 -675.571 952.451 6 3 6 255
123.179 -675.508 952.577 26 2 1 255
119.594 -675.446 952.702 31 2 1 255
116.636 -677.258 955.304 19 4 7 255
113.657 -679.069 957.907 17 7 1 255
110.051 -679.006 958.033 17 6 5 255
107.041 -680.817 960.636 14 7 4 255
104.01 -682.627 963.241 9 5 20 255
100.959 -684.437 965.846 10 6 5 255
98.0746 -686.872 969.278 15 12 33 255
94.4234 -686.808 969.406 18 6 6 255
91.3163 -688.617 972.013 16 4 2 255
88.1883 -690.426 974.621 12 3 10 255
85.0395 -692.234 977.23 15 9 26 255
81.8699 -694.042 979.839 11 7 2 255
78.1771 -693.978 979.968 8 7 4 255
75.1402 -696.409 983.406 11 5 2 255
71.4335 -696.344 983.535 10 4 24 255
68.198 -698.151 986.147 8 5 3 255
64.0202 -696.215 983.794 12 2 26 255
60.7638 -698.021 986.406 13 2 2 255
57.0467 -697.956 986.536 7 5 2 255
53.7591 -699.763 989.15 8 6 20 255
50.0315 -699.698 989.28 8 3 3 255
45.8954 -697.762 986.926 18 1 4 255
40.8507 -691.463 978.773 30 8 46 255
36.0048 -685.788 971.446 42 35 56 255
31.8504 -683.231 968.26 61 18 52 255
28.7024 -685.661 971.701 74 70 45 255
25.4079 -687.466 974.315 82 56 36 255
21.7463 -687.403 974.443 90 83 67 255
17.749 -685.469 972.084 91 65 57 255
14.0978 -685.406 972.211 87 71 62 255
10.4466 -685.342 972.339 91 80 75 255
6.79546 -685.278 972.466 88 81 84 255
3.14429 -685.214 972.594 82 79 77 255
-0.885178 -682.66 969.403 83 78 100 255
-4.15804 -685.087 972.849 83 73 81 255
-7.8092 -685.023 972.977 84 75 71 255
-11.4604 -684.96 973.104 88 67 94 255
-15.1115 -684.896 973.232 88 71 85 255
-18.7627 -684.832 973.359 85 72 97 255
-22.4139 -684.768 973.487 83 75 81 255
-26.065 -684.705 973.614 79 71 80 255
-29.7162 -684.641 973.742 78 82 74 255
-33.6207 -682.088 970.546 79 77 48 255
-37.0185 -684.513 973.997 41 4 24 255
-40.5005 -686.316 976.617 6 5 7 255
-44.0033 -688.118 979.238 7 4 1 255
-47.6753 -688.054 979.366 5 3 1 255
-51.3473 -687.99 979.494 7 3 2 255
-55.0193 -687.926 979.623 8 3 7 255
-58.6912 -687.862 979.751 6 4 2 255
-62.3632 -687.798 979.879 3 7 7 255
-66.1315 -685.869 977.512 4 4 2 255
-69.7931 -685.805 977.64 8 3 1 255
-73.4547 -685.741 977.768 8 2 1 255
-77.0512 -687.541 980.392 7 5 3 255
-80.7232 -687.477 980.52 8 5 1 255
-84.3952 -687.413 980.649 7 3 6 255
-88.0333 -689.213 983.274 5 1 15 255
-91.6923 -691.013 985.901 4 1 24 255
-95.3851 -690.948 986.03 7 1 1 255
-99.0745 -693.368 989.49 7 1 1 255
-102.789 -695.167 992.119 3 2 2 255
-106.445 -688.892 983.917 5 3 1 255
-110.07 -685.102 979.047 7 4 1 255
-113.693 -683.175 976.675 7 3 2 255
-117.278 -680.628 973.468 9 4 1 255
-120.915 -680.565 973.595 12 7 1 255
-123.03 -640.155 919.531 15 4 16 255
-126.361 -638.234 917.149 17 3 1 255
-129.58 -634.451 912.264 15 5 2 255
-132.893 -633.151 910.714 15 9 21 255
-136.266 -633.092 910.832 17 13 6 255
-139.517 -631.172 908.447 21 10 11 255
-142.748 -629.252 906.061 21 12 8 255
-146.1 -629.193 906.178 12 14 2 255
-149.3 -627.274 903.791 10 12 1 255
-152.642 -627.216 903.908 10 7 1 255
-155.868 -625.917 902.355 10 11 2 255
-159.203 -625.859 902.471 11 9 5 255
-162.538 -625.801 902.588 13 5 2 255
-165.874 -625.743 902.704 15 10 8 255
-169.209 -625.685 902.821 12 4 2 255
-172.318 -623.767 900.431 10 6 1 255
-175.643 -623.709 900.547 8 6 7 255
-178.968 -623.651 900.663 7 5 2 255
-182.293 -623.593 900.779 5 7 3 255
-185.618 -623.535 900.895 8 7 5 255
-188.943 -623.477 901.011 17 12 10 255
-192.268 -623.419 901.128 28 5 9 255
-195.592 -623.361 901.244 53 44 4 255
-198.917 -623.303 901.36 57 49 45 255
-202.562 -625.102 903.986 23 11 2 255
-206.118 -626.283 905.776 16 12 25 255
-210.142 -629.939 910.914 34 12 36 255
-213.857 -631.737 913.542 49 37 31 255
-217.23 -631.679 913.66 61 39 17 255
-220.604 -631.62 913.778 52 36 1 255
-390.076 -1298.85 1818.38 10 6 1 255
-397.195 -1298.72 1818.63 14 7 2 255
-406.094 -1306.02 1828.93 16 11 1 255
-413.254 -1305.89 1829.19 16 18 1 255
-420.414 -1305.77 1829.44 17 14 9 255
-427.574 -1305.64 1829.69 16 9 5 255
-434.734 -1305.52 1829.94 15 6 16 255
-441.894 -1305.39 1830.19 12 7 6 255
-449.054 -1305.27 1830.44 9 5 5 255
-456.214 -1305.14 1830.69 8 12 17 255
-463.374 -1305.02 1830.94 6 7 1 255
-470.534 -1304.89 1831.19 10 12 1 255
-477.694 -1304.77 1831.44 12 11 5 255
-484.854 -1304.64 1831.69 13 10 17 255
-492.014 -1304.52 1831.94 14 10 10 255
-496.852 -1296.98 1822.11 20 12 15 255
-503.97 -1296.86 1822.36 21 12 1 255
-511.089 -1296.73 1822.61 21 10 2 255
-520.654 -1304.02 1832.94 22 2 16 255
-527.814 -1303.89 1833.19 18 6 62 255
-532.444 -1296.36 1823.35 15 8 11 255
-539.562 -1296.24 1823.6 9 11 4 255
-544.067 -1288.7 1813.76 10 14 1 255
-551.144 -1288.58 1814.01 14 10 2 255
-560.917 -1295.86 1824.35 16 15 9 255
-568.036 -1295.74 1824.6 17 4 1 255
-577.934 -1303.02 1834.94 16 9 2 255
-585.094 -1302.9 1835.19 20 10 7 255
-592.254 -1302.77 1835.44 37 24 13 255
-596.509 -1295.24 1825.59 61 63 37 255
-600.681 -1287.72 1815.74 38 3 32 255
-607.758 -1287.59 1815.99 7 7 7 255
-614.835 -1287.47 1816.24 8 5 1 255
-624.983 -1294.75 1826.59 9 19 1 255
-635.215 -1302.02 1836.94 12 11 22 255
-642.375 -1301.9 1837.19 20 9 3 255
-649.535 -1301.77 1837.44 24 9 1 255
-656.695 -1301.65 1837.69 17 12 2 255
-437.75 -712.922 1035.47 118 164 200 255
-441.599 -712.855 1035.6 244 252 250 255
-445.448 -712.788 1035.74 253 253 233 255
-450.557 -715.183 1039.25 250 243 232 255
-453.146 -712.654 1036 248 241 237 255
-458.283 -715.048 1039.52 248 233 232 255
-462.146 -714.981 1039.65 247 244 231 255
-464.693 -712.452 1036.41 247 238 245 255
-469.872 -714.846 1039.92 247 243 235 255
-473.734 -714.779 1040.06 247 238 238 255
-477.597 -714.711 1040.19 248 245 239 255
-481.46 -714.644 1040.33 249 243 231 255
-483.938 -712.116 1037.08 249 235 220 255
-487.787 -712.049 1037.21 248 244 234 255
-491.636 -711.982 1037.35 247 241 232 255
-495.485 -711.914 1037.48 246 231 236 255
-499.334 -711.847 1037.62 247 243 234 255
-504.638 -714.239 1041.13 248 242 232 255
-507.032 -711.713 1037.89 248 241 233 255
-510.881 -711.646 1038.02 251 249 209 255
-514.73 -711.579 1038.16 178 120 72 255
-517.069 -709.053 1034.91 153 183 155 255
-520.905 -708.986 1035.04 148 49 15 255
-526.277 -711.377 1038.56 173 205 220 255
-528.575 -708.853 1035.31 251 242 243 255
-532.41 -708.786 1035.44 247 236 239 255
-537.824 -711.175 1038.96 245 239 242 255
-541.673 -711.108 1039.1 246 236 231 255
-547.129 -713.497 1042.62 248 247 241 255
-550.992 -713.43 1042.75 247 241 240 255
-554.855 -713.363 1042.89 246 241 240 255
-558.718 -713.295 1043.02 247 244 233 255
-562.581 -713.228 1043.16 247 231 230 255
-566.444 -713.16 1043.29 246 239 234 255
-568.616 -710.638 1040.04 244 232 238 255
-569.483 -706.275 1034.24 245 240 234 255
-573.308 -706.208 1034.37 247 239 222 255
-578.431 -707.982 1037.05 246 239 236 255
-582.266 -707.915 1037.18 246 235 233 255
-586.102 -707.848 1037.32 246 239 228 255
-588.606 -705.941 1034.91 243 228 233 255
-592.431 -705.874 1035.04 243 230 238 255
-596.256 -705.808 1035.17 244 238 232 255
-600.081 -705.741 1035.31 243 226 230 255
-605.277 -707.514 1037.99 243 222 228 255
-607.73 -705.607 1035.57 244 242 232 255
-611.555 -705.541 1035.71 245 227 211 255
992.521 -1307.15 1737.59 83 84 72 255
991.992 -1314.64 1747.59 94 85 56 255
984.957 -1314.51 1747.84 95 81 84 255
977.922 -1314.39 1748.08 89 89 88 255
983.566 -1329.47 1767.85 92 81 70 255
982.746 -1336.95 1777.85 84 73 67 255
975.586 -1336.83 1778.1 79 53 34 255
975.159 -1344.94 1788.93 77 74 104 255
961.266 -1336.58 1778.6 76 61 84 255
954.106 -1336.45 1778.85 76 61 71 255
919.501 -1328.36 1770.08 86 46 60 255
906.459 -1320.64 1760.56 78 63 75 255
905.264 -1328.11 1770.58 78 67 63 255
898.146 -1327.98 1770.83 71 67 83 255
891.028 -1327.86 1771.08 65 55 46 255
889.666 -1335.33 1781.11 72 60 62 255
882.506 -1335.2 1781.36 77 59 65 255
869.672 -1327.49 1771.82 64 66 103 255
862.554 -1327.36 1772.07 62 38 64 255
849.845 -1319.65 1762.54 80 73 93 255
842.769 -1319.52 1762.78 76 41 75 255
835.692 -1319.4 1763.03 52 41 72 255
828.615 -1319.28 1763.28 61 63 74 255
821.539 -1319.15 1763.53 78 64 56 255
814.462 -1319.03 1763.77 71 36 19 255
807.385 -1318.91 1764.02 56 58 60 255
800.308 -1318.78 1764.27 69 76 68 255
787.975 -1311.08 1754.72 86 47 81 255
780.94 -1310.95 1754.96 76 53 89 255
779.078 -1318.41 1765.01 66 44 41 255
772.001 -1318.29 1765.26 67 58 63 255
770.015 -1325.75 1775.3 72 55 76 255
757.848 -1318.04 1765.75 72 53 32 255
750.771 -1317.92 1766 69 52 52 255
738.729 -1310.22 1756.44 74 56 47 255
731.694 -1310.09 1756.68 80 56 44 255
729.541 -1317.55 1766.74 79 56 42 255
717.624 -1309.85 1757.18 81 46 69 255
715.388 -1317.3 1767.23 80 79 83 255
701.234 -1317.05 1767.73 79 58 52 255
255.836 -674.931 938.339 53 56 32 255
252.285 -674.869 938.462 41 9 27 255
247.712 -672.916 936.127 46 12 30 255
242.147 -669.072 931.332 55 49 53 255
236.624 -665.23 926.535 61 32 40 255
233.126 -665.169 926.657 61 37 45 255
230.609 -666.998 929.24 54 30 47 255
226.129 -665.047 926.901 57 26 55 255
221.99 -663.726 925.383 54 23 2 255
218.499 -663.665 925.505 48 20 20 255
215.007 -663.604 925.627 52 18 12 255
211.516 -663.543 925.749 49 17 14 255
208.024 -663.482 925.871 40 17 56 255
204.533 -663.421 925.992 37 22 17 255
201.64 -664.619 927.757 35 9 20 255
198.141 -664.558 927.879 32 10 22 255
195.52 -666.385 930.465 27 9 24 255
193.744 -670.101 935.517 23 7 11 255
191.926 -673.815 940.571 19 4 14 255
189.222 -675.641 943.16 17 7 17 255
187.61 -679.983 949.038 11 9 17 255
184.849 -681.808 951.629 13 5 6 255
181.254 -681.745 951.755 11 1 9 255
178.462 -683.57 954.347 5 1 22 255
174.856 -683.507 954.473 9 7 24 255
170.467 -681.557 952.131 11 8 12 255
167.644 -683.381 954.725 19 5 38 255
164.8 -685.204 957.319 21 3 2 255
161.936 -687.027 959.914 14 9 23 255
159.05 -688.85 962.51 15 3 3 255
157.119 -693.187 968.399 15 3 4 255
154.178 -695.009 970.996 12 1 2 255
150.506 -694.945 971.125 13 7 28 255
146.134 -692.995 968.782 13 5 5 255
143.162 -694.816 971.381 10 3 6 255
139.49 -694.752 971.509 7 4 36 255
135.818 -694.688 971.638 5 3 14 255
132.146 -694.624 971.766 4 2 11 255
125.019 -684.51 958.709 9 3 17 255
120.128 -680.678 953.89 12 3 8 255
116.532 -680.616 954.015 15 3 12 255
112.937 -680.553 954.141 24 6 15 255
109.947 -682.374 956.74 22 4 27 255
106.937 -684.194 959.34 14 6 15 255
103.906 -686.015 961.941 17 6 42 255
100.854 -687.834 964.542 17 12 2 255
97.2166 -687.771 964.669 14 9 29 255
94.3182 -690.218 968.097 22 4 9 255
91.2108 -692.037 970.701 22 3 4 255
88.6158 -695.737 975.781 14 4 11 255
84.9334 -695.673 975.91 20 7 22 255
81.7635 -697.491 978.515 22 3 2 255
78.0707 -697.426 978.644 26 7 4 255
75.0334 -699.871 982.077 20 5 6 255
71.3267 -699.806 982.206 6 8 8 255
68.0909 -701.623 984.814 9 4 10 255
64.3738 -701.558 984.944 10 3 17 255
61.1067 -703.374 987.553 12 2 2 255
57.3792 -703.309 987.683 15 2 1 255
53.6516 -703.244 987.814 15 3 22 255
49.9241 -703.179 987.944 10 1 7 255
46.1966 -703.114 988.074 9 1 8 255
42.0711 -701.169 985.723 5 3 1 255
37.9665 -699.224 983.372 8 2 2 255
34.2598 -699.159 983.501 8 1 15 255
29.6974 -694.709 977.839 1 1 16 255
26.3713 -696.524 980.45 1 1 14 255
21.9867 -692.701 975.613 3 1 20 255
17.9792 -690.758 973.258 7 2 24 255
13.9926 -688.816 970.903 18 31 30 255
10.3414 -688.752 971.03 28 30 37 255
6.69022 -688.688 971.158 47 15 48 255
3.03906 -688.624 971.285 70 45 74 255
-0.612099 -688.561 971.413 78 50 75 255
-4.26327 -688.497 971.54 84 80 46 255
-7.91443 -688.433 971.668 87 76 63 255
-11.5656 -688.37 971.795 88 75 79 255
-15.2168 -688.306 971.923 89 76 74 255
-18.8679 -688.242 972.05 85 79 82 255
-22.5191 -688.178 972.178 78 74 51 255
-26.1703 -688.115 972.305 39 5 70 255
-29.8214 -688.051 972.433 26 10 58 255
-33.2829 -689.864 975.049 46 63 15 255
-36.9444 -689.8 975.177 26 1 22 255
-40.4371 -691.612 977.794 11 2 4 255
-43.7922 -695.299 982.901 9 5 1 255
-47.485 -695.235 983.029 7 4 1 255
-51.3154 -693.295 980.668 12 3 1 255
-54.9978 -693.231 980.797 13 3 17 255
-58.6802 -693.166 980.926 8 3 8 255
-62.3626 -693.102 981.054 6 4 22 255
-65.949 -694.913 983.674 7 4 2 255
-69.6418 -694.848 983.803 14 3 1 255
-73.485 -691.035 978.948 13 3 1 255
-77.0922 -692.845 981.569 7 3 4 255
-80.7746 -692.781 981.697 15 2 1 255
-84.4131 -694.59 984.319 16 1 15 255
-88.1059 -694.526 984.448 6 1 12 255
-91.7679 -696.959 987.903 5 2 26 255
-95.4492 -700.641 993.021 6 3 2 255
-99.1736 -703.074 996.478 4 1 1 255
-102.915 -703.008 996.608 4 2 2 255
-106.613 -698.573 990.916 6 4 1 255
-109.559 -648.573 924.488 6 5 1 255
-113.798 -686.585 975.366 9 3 7 255
-117.383 -684.025 972.165 13 2 28 255
-119.757 -644.649 919.854 16 8 4 255
-123.128 -643.341 918.309 26 5 13 255
-126.459 -641.41 915.93 24 6 1 255
-129.616 -636.36 909.387 15 5 1 255
-132.888 -634.43 907.007 14 9 18 255
-136.251 -634.371 907.124 17 12 6 255
-139.492 -632.442 904.742 21 5 5 255
-142.711 -630.512 902.36 19 7 6 255
-145.958 -629.207 900.81 16 4 1 255
-149.293 -629.149 900.927 13 10 1 255
-152.629 -629.091 901.043 13 10 1 255
-155.964 -629.032 901.16 14 5 2 255
-159.299 -628.974 901.276 18 3 9 255
-162.635 -628.916 901.393 21 2 2 255
-165.97 -628.858 901.509 13 1 13 255
-169.305 -628.799 901.625 5 1 6 255
-172.414 -626.872 899.239 8 1 6 255
-175.976 -628.683 901.858 8 1 21 255
-179.311 -628.625 901.975 12 2 18 255
-182.389 -626.698 899.587 12 3 16 255
-185.714 -626.64 899.704 7 2 11 255
-189.038 -626.582 899.82 8 3 1 255
-192.363 -626.524 899.936 11 5 4 255
-195.688 -626.466 900.052 24 2 1 255
-199.013 -626.408 900.168 37 21 57 255
-202.659 -628.217 902.79 65 58 6 255
-205.994 -628.159 902.907 66 55 28 255
-209.898 -631.213 907.201 40 10 15 255
-213.954 -634.888 912.333 37 17 10 255
-217.328 -634.829 912.451 46 49 12 255
-220.701 -634.77 912.568 46 27 27 255
-378.193 -1283.23 1785.47 9 9 36 255
-388.583 -1298.03 1805.79 17 10 3 255
-395.66 -1297.91 1806.04 21 18 2 255
-404.518 -1305.25 1816.33 22 11 1 255
-411.637 -1305.12 1816.58 22 18 28 255
-418.755 -1305 1816.82 15 13 2 255
-425.873 -1304.87 1817.07 13 8 1 255
-432.992 -1304.75 1817.32 23 7 2 255
-440.11 -1304.62 1817.57 25 7 1 255
-447.228 -1304.5 1817.82 16 12 1 255
-456.42 -1311.83 1828.12 16 14 3 255
-463.58 -1311.71 1828.37 18 9 2 255
-468.584 -1304.13 1818.56 22 7 1 255
-475.702 -1304 1818.81 21 9 6 255
-482.82 -1303.88 1819.06 16 11 20 255
-489.939 -1303.75 1819.31 13 3 10 255
-497.057 -1303.63 1819.56 9 9 19 255
-504.176 -1303.51 1819.81 10 11 2 255
-511.294 -1303.38 1820.06 15 5 5 255
-518.412 -1303.26 1820.3 15 5 21 255
-525.531 -1303.13 1820.55 15 10 51 255
-532.649 -1303.01 1820.8 13 4 15 255
-539.767 -1302.88 1821.05 12 7 6 255
-544.271 -1295.31 1811.23 14 12 1 255
-551.348 -1295.19 1811.48 14 11 2 255
-558.425 -1295.07 1811.72 14 11 9 255
-568.241 -1302.39 1822.04 14 11 1 255
-575.359 -1302.26 1822.29 9 6 3 255
-582.478 -1302.14 1822.54 24 13 14 255
-589.596 -1302.01 1822.79 43 55 30 255
-593.808 -1294.45 1812.96 37 33 6 255
-600.885 -1294.33 1813.21 18 1 23 255
-607.962 -1294.2 1813.45 7 4 5 255
-615.039 -1294.08 1813.7 7 9 1 255
-622.115 -1293.95 1813.95 9 17 1 255
-632.306 -1301.27 1824.28 17 22 22 255
-636.269 -1293.71 1814.44 19 10 6 255
-646.543 -1301.02 1824.78 15 12 8 255
-650.422 -1293.46 1814.94 10 9 2 255
-657.499 -1293.34 1815.18 24 31 39 255
-439.553 -712.117 1028.33 187 241 236 255
-444.313 -713.907 1030.99 251 248 238 255
-449.408 -716.315 1034.49 247 233 235 255
-451.983 -713.773 1031.25 248 244 228 255
-455.818 -713.706 1031.39 249 244 227 255
-458.677 -711.783 1028.99 248 235 222 255
-462.502 -711.716 1029.13 247 243 241 255
-466.326 -711.65 1029.26 247 240 232 255
-472.502 -715.912 1035.3 247 242 238 255
-476.351 -715.845 1035.43 247 239 232 255
-480.2 -715.778 1035.57 248 239 230 255
-482.664 -713.237 1032.33 249 251 231 255
-486.499 -713.17 1032.46 248 240 237 255
-489.275 -711.249 1030.06 248 240 230 255
-493.099 -711.182 1030.2 249 245 236 255
-498.004 -712.97 1032.86 249 243 226 255
-501.84 -712.903 1033 248 244 229 255
-504.573 -710.982 1030.6 248 241 232 255
-508.398 -710.915 1030.73 252 246 218 255
-510.726 -708.377 1027.48 221 218 97 255
-514.537 -708.311 1027.62 183 3 122 255
-519.872 -710.715 1031.13 153 182 83 255
-523.697 -710.648 1031.26 163 117 104 255
-527.521 -710.581 1031.4 225 246 235 255
-531.346 -710.515 1031.53 249 229 243 255
-535.171 -710.448 1031.66 247 244 239 255
-538.996 -710.381 1031.8 246 236 234 255
-541.213 -707.845 1028.55 247 237 240 255
-546.645 -710.248 1032.07 249 244 240 255
-550.47 -710.181 1032.2 247 245 246 255
-555.531 -711.966 1034.87 246 233 238 255
-559.366 -711.899 1035 245 240 241 255
-563.201 -711.832 1035.14 246 242 237 255
-565.768 -709.914 1032.73 246 230 233 255
-567.889 -707.379 1029.48 246 242 234 255
-571.7 -707.313 1029.61 246 236 234 255
-575.51 -707.246 1029.75 249 245 239 255
-579.321 -707.18 1029.88 250 244 233 255
-583.132 -707.113 1030.01 246 235 233 255
-586.943 -707.047 1030.15 244 236 231 255
-589.413 -705.131 1027.74 245 235 227 255
-593.213 -705.064 1027.87 244 225 215 255
-598.375 -706.847 1030.55 243 230 230 255
-602.186 -706.781 1030.68 243 236 232 255
-605.997 -706.714 1030.81 244 225 236 255
-609.808 -706.648 1030.95 245 218 210 255
992.319 -1313.69 1735.09 75 78 61 255
985.326 -1313.56 1735.33 72 66 65 255
978.333 -1313.44 1735.58 79 67 83 255
971.339 -1313.32 1735.82 90 80 96 255
970.684 -1320.84 1745.81 89 62 76 255
969.946 -1328.36 1755.8 74 61 61 255
962.869 -1328.23 1756.05 77 60 22 255
955.793 -1328.11 1756.29 76 65 98 255
948.716 -1327.99 1756.54 76 73 83 255
935.509 -1320.22 1747.04 77 64 76 255
928.474 -1320.1 1747.28 74 54 85 255
915.392 -1312.34 1737.77 70 42 74 255
914.404 -1319.86 1747.77 69 60 96 255
913.332 -1327.37 1757.78 78 62 58 255
900.333 -1319.61 1748.27 79 64 79 255
893.298 -1319.49 1748.51 82 73 68 255
886.263 -1319.37 1748.76 80 56 44 255
879.228 -1319.24 1749 79 70 58 255
877.948 -1326.75 1759.01 88 69 76 255
876.586 -1334.26 1769.02 86 58 71 255
863.795 -1326.5 1759.51 74 53 104 255
844.053 -1318.63 1750.23 79 78 96 255
829.983 -1318.38 1750.72 74 49 81 255
822.947 -1318.26 1750.97 92 93 82 255
821.335 -1325.76 1760.99 73 48 69 255
814.258 -1325.64 1761.24 56 48 38 255
801.842 -1317.89 1751.71 74 54 70 255
